ply
format ascii 1.0
element vertex 1321
property double x
property double y
property double z
property uchar red
property uchar green
property uchar blue
end_header
0.171922 0.696725 0.146152 64 88 118
0.146962 0.68824 0.165786 19 49 87
0.148816 0.689621 0.165983 42 68 101
0.149684 0.691397 0.169732 62 81 111
0.153433 0.693172 0.165746 58 73 96
0.15586 0.696527 0.16764 99 105 124
0.157715 0.695343 0.162905 64 79 102
0.156886 0.696132 0.165924 98 105 121
0.148777 0.693765 0.178612 89 90 99
0.185695 0.697711 0.127132 74 86 98
0.183426 0.698106 0.130288 29 51 81
0.179677 0.697513 0.134926 24 50 84
0.184254 0.701657 0.139365 31 55 86
0.205032 0.698697 0.110122 154 121 88
0.200592 0.698501 0.116417 173 145 118
0.200079 0.698501 0.117009 165 139 113
0.20004 0.701066 0.119988 168 135 106
0.20519 0.706591 0.117798 171 143 100
0.212017 0.705209 0.102783 175 149 102
0.208742 0.7058 0.1088 171 145 98
0.206117 0.704617 0.113556 171 139 99
0.21474 0.711918 0.104025 194 167 113
0.214009 0.714483 0.10884 184 157 105
0.218212 0.715075 0.103848 192 164 109
0.207774 0.707577 0.112668 178 150 103
0.20882 0.709551 0.112984 186 158 109
0.208879 0.71172 0.116476 200 171 122
0.213161 0.716457 0.114246 207 178 128
0.21182 0.715666 0.116733 191 163 114
0.211701 0.716652 0.119988 200 177 129
0.193903 0.698894 0.123087 163 152 127
0.194653 0.701066 0.125297 169 157 133
0.198323 0.701854 0.12283 148 123 98
0.199704 0.70284 0.122495 155 128 100
0.202782 0.705998 0.121942 150 121 82
0.201283 0.706195 0.125178 161 134 98
0.196034 0.704419 0.128927 159 151 129
0.197238 0.7058 0.129874 160 149 127
0.202842 0.709155 0.127191 173 148 109
0.204696 0.712313 0.12877 191 169 126
0.195146 0.707577 0.134117 72 92 115
0.198599 0.70876 0.1324 171 163 138
0.198441 0.709551 0.133545 115 122 122
0.201579 0.712706 0.134018 159 157 141
0.200848 0.714878 0.139167 48 70 101
0.207222 0.714285 0.12652 205 181 136
0.207636 0.716062 0.129795 196 176 136
0.220502 0.71764 0.104815 216 187 131
0.222534 0.718034 0.104045 212 182 124
0.217936 0.718626 0.109412 209 179 128
0.21985 0.720205 0.110083 221 191 138
0.224389 0.720796 0.10736 187 157 100
0.22281 0.722375 0.111721 220 191 136
0.215509 0.718429 0.112865 188 159 108
0.215213 0.719022 0.115174 207 179 127
0.214543 0.719415 0.121488 214 193 143
0.217088 0.720205 0.114305 206 179 126
0.217285 0.719415 0.112174 200 171 119
0.221074 0.722177 0.112767 225 196 140
0.223974 0.723165 0.112155 217 188 134
0.219298 0.722572 0.117582 178 152 99
0.221074 0.723756 0.118647 207 182 131
0.211464 0.717245 0.122889 198 176 129
0.209175 0.716652 0.127625 201 178 132
0.213043 0.720008 0.130664 213 192 145
0.209274 0.718429 0.134077 174 164 142
0.211957 0.71981 0.132952 174 164 139
0.218726 0.724151 0.140194 39 60 88
0.166062 0.698501 0.156887 38 59 88
0.178414 0.699092 0.14264 41 68 100
0.183031 0.702645 0.143943 52 74 102
0.171705 0.699289 0.151697 56 81 113
0.16766 0.699092 0.156295 25 49 78
0.171152 0.703631 0.160281 56 69 89
0.175533 0.705012 0.158545 52 65 88
0.18019 0.704222 0.152763 28 49 78
0.18311 0.706195 0.154164 50 74 105
0.182676 0.706591 0.156176 44 70 100
0.161524 0.701459 0.165628 71 79 93
0.162037 0.698894 0.162944 94 103 122
0.160221 0.700275 0.165983 69 77 91
0.166219 0.702249 0.162964 77 82 99
0.162984 0.702447 0.165115 67 76 93
0.153019 0.696922 0.172712 45 44 55
0.153296 0.698894 0.173461 56 59 74
0.152526 0.702645 0.175099 41 50 71
0.153986 0.704026 0.172988 42 51 72
0.155525 0.705012 0.171251 47 58 79
0.16324 0.711325 0.167917 0 9 49
0.156038 0.707577 0.170877 36 51 78
0.156255 0.716652 0.171823 11 30 69
0.156176 0.712509 0.171409 4 22 58
0.147475 0.713299 0.179598 16 32 67
0.168923 0.703433 0.161938 81 86 103
0.168824 0.716259 0.168055 19 40 73
0.175829 0.714878 0.168489 44 53 72
0.185951 0.711523 0.16549 100 96 100
0.180565 0.712313 0.167068 98 91 94
0.179775 0.714088 0.169021 71 69 76
0.184393 0.715271 0.17137 112 101 98
0.164148 0.723954 0.170186 48 61 85
0.152822 0.723165 0.174843 9 22 62
0.150434 0.723756 0.176618 5 18 58
0.160853 0.727309 0.170719 44 63 86
0.153552 0.728492 0.174922 28 50 79
0.147041 0.727111 0.179026 4 23 64
0.156492 0.732241 0.173659 32 54 81
0.150908 0.73165 0.176934 3 16 59
0.152131 0.732439 0.176303 13 30 66
0.157261 0.730662 0.172889 33 55 82
0.159274 0.734412 0.173698 15 28 65
0.161307 0.734412 0.173047 21 28 63
0.163319 0.732043 0.172139 53 61 80
0.17498 0.717245 0.169771 21 33 61
0.175553 0.720403 0.171192 12 20 47
0.182853 0.71764 0.173205 64 58 61
0.185873 0.717443 0.174112 101 90 88
0.182597 0.7206 0.174724 71 64 66
0.179361 0.721586 0.173481 55 59 72
0.18088 0.724744 0.175494 60 63 78
0.169791 0.728888 0.172377 54 60 73
0.169831 0.733425 0.17435 57 65 80
0.174862 0.735596 0.177211 25 35 61
0.180762 0.730071 0.177684 46 52 70
0.194535 0.71172 0.146587 41 65 97
0.195837 0.712509 0.149231 34 55 86
0.201697 0.716062 0.145758 46 64 93
0.186859 0.707774 0.154164 42 69 99
0.19047 0.710142 0.15665 50 74 104
0.193114 0.711918 0.157893 77 94 121
0.198796 0.715075 0.157991 72 89 113
0.190647 0.712904 0.165451 83 89 101
0.186721 0.712116 0.1662 102 101 107
0.188201 0.712904 0.167246 112 110 115
0.190568 0.715666 0.171311 124 113 110
0.205722 0.718231 0.149211 81 99 128
0.203236 0.71764 0.15961 68 84 108
0.210774 0.720994 0.142384 27 56 90
0.213043 0.721982 0.144337 25 52 88
0.218548 0.724349 0.142601 25 52 86
0.217265 0.723954 0.148146 27 54 87
0.20742 0.719219 0.157617 65 85 112
0.208465 0.720008 0.159018 64 85 113
0.221389 0.725532 0.151717 33 59 89
0.217857 0.724151 0.15663 49 71 101
0.200987 0.718231 0.167266 87 94 110
0.204203 0.719612 0.167206 67 80 99
0.188635 0.718824 0.176382 87 78 77
0.20369 0.721191 0.173698 102 99 104
0.19708 0.722375 0.180446 151 136 128
0.205979 0.71981 0.165016 55 74 99
0.208426 0.721191 0.167917 51 72 100
0.20884 0.721586 0.169041 48 67 95
0.215943 0.724744 0.170166 56 80 111
0.205801 0.722968 0.177328 129 122 121
0.223797 0.727111 0.161385 48 74 106
0.221153 0.729281 0.177901 39 66 100
0.244298 0.714878 0.103434 165 133 85
0.246508 0.712509 0.102072 155 119 76
0.245699 0.713497 0.102842 155 121 76
0.247573 0.71389 0.104006 154 119 77
0.253059 0.715271 0.106512 139 103 68
0.256216 0.712116 0.103197 160 125 94
0.257913 0.713694 0.104104 152 119 86
0.259708 0.713497 0.102704 155 123 90
0.256532 0.716062 0.106571 131 95 62
0.256314 0.716457 0.106985 121 85 53
0.231433 0.7206 0.105229 199 168 111
0.2338 0.720205 0.104933 206 174 119
0.235695 0.718034 0.102881 196 167 113
0.236149 0.723558 0.111523 224 192 135
0.237313 0.722572 0.109629 206 176 125
0.232715 0.724546 0.113102 233 202 146
0.22794 0.72573 0.119969 218 191 137
0.233031 0.72573 0.118252 210 184 132
0.24118 0.725137 0.115944 196 167 115
0.238576 0.725928 0.118587 226 202 153
0.242759 0.725928 0.117699 199 169 119
0.24852 0.717838 0.108031 156 120 77
0.254124 0.717838 0.108544 140 105 69
0.257084 0.721389 0.110616 171 140 101
0.258721 0.723756 0.111741 172 143 103
0.26105 0.722572 0.109215 150 122 82
0.246014 0.724546 0.115134 193 161 113
0.250809 0.725335 0.11622 174 145 101
0.256196 0.723558 0.112787 172 141 101
0.260833 0.726125 0.113082 173 143 103
0.252783 0.72869 0.12137 187 162 120
0.264345 0.731057 0.11908 189 162 124
0.261898 0.730269 0.118864 194 166 128
0.225809 0.725532 0.122771 202 177 125
0.225987 0.72573 0.124961 199 175 126
0.22719 0.725928 0.126875 198 175 125
0.233051 0.726914 0.125889 215 195 153
0.239898 0.727309 0.122475 206 184 137
0.242167 0.728888 0.127625 198 183 144
0.244436 0.729281 0.127407 194 180 143
0.234846 0.729676 0.13901 92 101 111
0.238299 0.729083 0.131887 145 143 135
0.236326 0.729281 0.134156 160 154 135
0.242719 0.731057 0.13609 77 85 97
0.243371 0.73086 0.134728 79 87 98
0.242936 0.731255 0.137095 65 76 91
0.250691 0.728888 0.122573 193 168 125
0.251382 0.729874 0.125355 199 180 140
0.252526 0.730269 0.125889 199 180 141
0.247494 0.730662 0.130151 177 175 157
0.262688 0.73382 0.127349 174 157 123
0.261543 0.734608 0.131058 95 102 106
0.248284 0.732043 0.135518 75 86 99
0.246843 0.732043 0.137412 69 83 102
0.246389 0.732043 0.139306 75 89 108
0.24854 0.732636 0.138102 45 60 82
0.256294 0.734806 0.139839 85 96 113
0.257913 0.735201 0.139917 65 78 97
0.260221 0.735794 0.136741 74 88 107
0.268272 0.721982 0.104617 204 182 141
0.268094 0.721586 0.104401 201 179 139
0.279124 0.726125 0.106669 194 173 127
0.283722 0.724349 0.104401 172 156 120
0.268844 0.726716 0.109097 208 184 142
0.27798 0.728295 0.109886 188 167 123
0.275217 0.727506 0.108544 216 194 149
0.268686 0.732834 0.120778 187 160 119
0.274349 0.73382 0.120857 154 128 86
0.276085 0.732439 0.11622 181 156 114
0.282163 0.732241 0.118332 167 143 101
0.292068 0.721191 0.102565 49 53 47
0.285438 0.725532 0.107084 173 156 118
0.301046 0.722177 0.106847 122 111 84
0.298797 0.722375 0.107183 115 104 79
0.296094 0.724349 0.109354 150 128 95
0.29929 0.725928 0.11176 125 98 66
0.289049 0.727111 0.111327 158 135 93
0.293963 0.72869 0.115352 154 127 93
0.28974 0.729478 0.115924 179 154 115
0.293252 0.731452 0.119258 192 165 129
0.295008 0.729478 0.116318 141 114 81
0.303296 0.733031 0.118213 160 135 99
0.303296 0.732439 0.117246 141 116 80
0.303868 0.734608 0.120639 178 155 119
0.272317 0.734215 0.124231 154 131 93
0.266082 0.734608 0.127822 170 154 122
0.265707 0.734806 0.128986 171 158 129
0.267108 0.735794 0.131058 154 152 140
0.278572 0.735989 0.128986 176 156 121
0.282261 0.735201 0.127447 167 142 103
0.292857 0.735596 0.128177 166 141 107
0.229914 0.728888 0.150652 50 75 104
0.240016 0.731452 0.143923 85 98 122
0.244752 0.732439 0.150198 70 90 119
0.229756 0.729281 0.154815 49 75 107
0.230821 0.729676 0.15588 35 61 92
0.230742 0.729281 0.15227 51 75 105
0.236405 0.731255 0.155052 62 87 121
0.245028 0.733227 0.153887 46 69 99
0.244179 0.733227 0.154696 47 71 101
0.23532 0.73165 0.160379 50 83 116
0.24266 0.734215 0.160439 70 90 118
0.248126 0.732636 0.143805 76 89 109
0.248343 0.732834 0.145107 69 81 102
0.252131 0.733622 0.141338 81 94 114
0.253769 0.734017 0.142226 80 92 110
0.246212 0.732439 0.147139 68 84 107
0.245817 0.732439 0.149409 79 97 123
0.249191 0.733227 0.150652 88 100 121
0.251303 0.733622 0.150513 94 106 126
0.254085 0.734017 0.146745 84 95 111
0.260813 0.735989 0.14708 86 98 114
0.25296 0.734412 0.153019 73 88 109
0.252664 0.735596 0.158387 67 89 117
0.23019 0.730269 0.165746 32 63 95
0.232794 0.731255 0.166023 46 74 108
0.237668 0.732834 0.162984 35 66 101
0.235636 0.732636 0.167384 40 77 116
0.226579 0.730465 0.174704 32 61 96
0.227526 0.730465 0.173284 33 63 99
0.241476 0.735989 0.174586 32 67 103
0.237865 0.735201 0.176658 41 69 105
0.147376 0.736385 0.179756 15 33 72
0.152348 0.740726 0.177901 5 23 61
0.151993 0.744277 0.179342 49 65 95
0.160359 0.736187 0.174014 8 17 57
0.164562 0.737371 0.174665 10 17 56
0.164542 0.738358 0.175159 0 6 50
0.163812 0.740726 0.176263 0 7 49
0.156847 0.745855 0.178927 64 78 106
0.15148 0.746448 0.180446 42 59 89
0.16249 0.748618 0.180229 37 51 82
0.173224 0.736187 0.176717 37 45 66
0.173954 0.737371 0.177566 19 31 58
0.169377 0.744081 0.179322 10 28 60
0.167522 0.747237 0.180506 10 28 59
0.27281 0.737568 0.135122 54 69 91
0.265983 0.736977 0.136741 55 78 105
0.268528 0.737568 0.140154 57 77 102
0.277486 0.737963 0.135971 65 84 106
0.279756 0.737175 0.132952 148 140 122
0.275928 0.737963 0.137273 70 88 111
0.278177 0.738161 0.138359 78 97 120
0.296626 0.737568 0.132163 166 156 140
0.299961 0.73974 0.137037 111 115 119
0.262826 0.736582 0.149961 82 95 114
0.239089 0.736582 0.180525 40 74 113
0.241634 0.73678 0.17871 31 60 96
0.252408 0.736582 0.165568 38 62 95
0.258781 0.737175 0.160892 52 74 102
0.260912 0.737766 0.161208 51 74 102
0.257774 0.738358 0.168528 53 76 107
0.247593 0.736977 0.172613 63 88 122
0.247514 0.737568 0.175296 83 108 143
0.251835 0.737963 0.173758 64 89 122
0.249251 0.739147 0.180525 50 76 109
0.250789 0.738358 0.176184 77 101 136
0.255466 0.738358 0.172179 62 84 115
0.257262 0.738752 0.171666 69 92 121
0.264345 0.741121 0.171981 80 100 127
0.2706 0.737766 0.145265 75 91 112
0.274132 0.738752 0.148501 99 117 140
0.271981 0.738752 0.15229 66 87 111
0.270541 0.738358 0.152092 53 77 103
0.267285 0.738358 0.157459 52 72 96
0.276441 0.741319 0.160221 74 91 111
0.287313 0.740133 0.144476 75 91 115
0.293588 0.740528 0.141713 43 64 90
0.285932 0.740528 0.148185 89 106 130
0.291772 0.741319 0.147218 82 101 125
0.291595 0.741514 0.149231 80 99 122
0.297534 0.741712 0.146113 70 92 115
0.296804 0.741712 0.146528 69 90 113
0.301914 0.742107 0.146784 74 96 119
0.28976 0.7427 0.15813 84 102 124
0.297356 0.743488 0.156729 64 83 105
0.30075 0.744474 0.159886 59 77 97
0.2691 0.740528 0.164246 107 123 145
0.272277 0.741514 0.165214 46 65 90
0.266377 0.741319 0.170561 60 82 109
0.267285 0.742305 0.174526 56 78 106
0.269515 0.742895 0.174764 56 80 108
0.269515 0.743488 0.178236 50 75 103
0.274527 0.744081 0.17869 41 66 95
0.275 0.743291 0.171646 48 71 97
0.278375 0.744672 0.179164 67 89 116
0.284925 0.744277 0.169239 64 83 109
0.292206 0.745067 0.167719 60 77 99
0.298323 0.745265 0.164543 81 96 116
0.292897 0.746251 0.171627 75 93 115
0.297435 0.746843 0.171133 69 84 104
0.298501 0.74842 0.175533 67 85 108
0.296311 0.748225 0.175947 54 74 97
0.295462 0.748815 0.178414 65 83 107
0.148382 0.698894 0.184215 53 53 65
0.147277 0.704026 0.184313 4 13 49
0.148382 0.705407 0.181709 0 7 44
0.190154 0.72494 0.182578 71 61 58
0.1927 0.723165 0.181709 110 96 90
0.194002 0.725928 0.185754 99 89 86
0.204519 0.724349 0.181295 78 76 79
0.192246 0.727111 0.185853 44 42 51
0.194416 0.728888 0.189424 34 34 43
0.18974 0.733425 0.187984 22 26 43
0.18976 0.735989 0.189838 30 37 60
0.190411 0.735794 0.190568 37 44 66
0.191358 0.734608 0.19116 31 38 58
0.195067 0.734017 0.196883 28 30 44
0.197751 0.728492 0.19195 73 67 69
0.196784 0.733622 0.2001 38 38 48
0.213793 0.727111 0.18165 46 69 101
0.206019 0.726321 0.186011 135 129 131
0.213951 0.72869 0.186583 58 80 110
0.217601 0.72869 0.181295 28 52 84
0.219988 0.731452 0.18903 50 74 109
0.208583 0.728492 0.191831 68 72 84
0.215332 0.730071 0.190806 22 46 80
0.206571 0.729083 0.195758 114 111 115
0.206709 0.729676 0.198363 107 102 105
0.217917 0.731057 0.193134 18 38 72
0.221429 0.732439 0.194771 5 27 59
0.220995 0.732241 0.195363 1 22 54
0.20002 0.732043 0.203967 100 85 79
0.20006 0.731255 0.202684 93 79 74
0.201026 0.731255 0.204558 116 97 85
0.200987 0.731846 0.207992 112 94 83
0.194692 0.735201 0.217956 102 89 82
0.201658 0.732241 0.211997 97 81 73
0.20365 0.731846 0.210991 115 98 89
0.19704 0.73382 0.217996 102 88 80
0.204854 0.731846 0.218193 122 108 100
0.204243 0.731846 0.218055 115 102 94
0.210103 0.731255 0.204992 152 139 134
0.210517 0.730465 0.200237 65 67 74
0.212254 0.732439 0.208959 75 71 73
0.221528 0.733227 0.202684 23 58 97
0.218844 0.73382 0.207637 71 88 113
0.206295 0.731452 0.210123 131 113 101
0.209748 0.732043 0.210734 69 62 60
0.206315 0.731846 0.214878 82 74 71
0.212471 0.733622 0.215588 88 83 83
0.148165 0.705603 0.243982 145 131 127
0.14998 0.706788 0.246093 99 88 89
0.149369 0.704419 0.25152 40 36 41
0.150928 0.710537 0.243667 115 99 94
0.151657 0.712116 0.243469 99 85 78
0.149566 0.715469 0.24045 93 74 68
0.155249 0.712509 0.248086 88 70 64
0.154894 0.712313 0.247653 87 68 61
0.15807 0.716062 0.249291 97 81 75
0.155723 0.71172 0.250514 109 95 91
0.155367 0.710734 0.251737 104 93 91
0.151303 0.717245 0.241417 89 69 62
0.148067 0.725532 0.241279 27 18 18
0.152802 0.723558 0.242621 70 53 48
0.158623 0.720205 0.247811 112 93 86
0.158978 0.720008 0.248264 114 95 88
0.160261 0.721982 0.249113 111 93 87
0.159748 0.722375 0.24856 102 85 80
0.163792 0.7206 0.258544 100 87 82
0.161898 0.723954 0.25075 105 86 77
0.16174 0.724349 0.250138 102 83 74
0.161938 0.726125 0.249428 97 77 68
0.151796 0.726519 0.24266 44 32 31
0.149211 0.729281 0.243469 22 14 17
0.153058 0.728097 0.243883 44 32 31
0.154736 0.730465 0.245107 45 32 30
0.151164 0.73382 0.245935 13 6 10
0.159412 0.728295 0.246626 70 54 49
0.16249 0.73165 0.248066 101 82 73
0.16695 0.728295 0.253237 105 88 80
0.169002 0.732439 0.250809 103 86 78
0.17429 0.73165 0.25592 116 100 93
0.181295 0.735596 0.253316 91 80 72
0.182321 0.734806 0.258288 93 82 75
0.19491 0.73382 0.223106 109 90 81
0.194831 0.733425 0.225928 106 88 79
0.194495 0.733425 0.228375 113 95 84
0.201401 0.731846 0.223007 140 122 111
0.199093 0.732241 0.227566 137 120 107
0.202249 0.732043 0.224863 149 131 119
0.190016 0.735398 0.230643 97 80 69
0.194771 0.733622 0.234432 113 99 87
0.193449 0.734017 0.23167 101 84 73
0.195462 0.734017 0.237727 111 98 86
0.196488 0.732834 0.231373 120 104 92
0.196607 0.734017 0.238536 108 96 84
0.214404 0.735989 0.226362 85 90 100
0.215963 0.735989 0.223501 59 66 81
0.209511 0.735003 0.230387 102 98 100
0.20884 0.735003 0.231413 103 98 98
0.211149 0.735989 0.233998 89 89 95
0.194988 0.735596 0.244791 88 75 68
0.198895 0.734806 0.24266 95 84 76
0.203217 0.735003 0.2412 78 74 76
0.199862 0.735596 0.24637 89 80 75
0.225533 0.732439 0.183387 30 63 101
0.228295 0.733227 0.182439 42 75 113
0.227447 0.735596 0.203533 14 52 93
0.147317 0.704222 0.263063 84 86 95
0.151283 0.707182 0.261168 94 91 97
0.151579 0.707774 0.263931 102 99 103
0.153532 0.709155 0.262708 101 99 103
0.156965 0.712706 0.266042 105 99 101
0.149428 0.707182 0.269594 74 76 86
0.149902 0.708169 0.27285 53 56 70
0.151796 0.711128 0.278473 55 60 76
0.156571 0.713102 0.269594 68 64 68
0.155249 0.712313 0.270403 72 70 76
0.156689 0.71389 0.272633 60 59 67
0.159807 0.716062 0.271054 61 56 61
0.149152 0.710339 0.283445 78 87 107
0.156216 0.715666 0.280131 96 93 97
0.152684 0.714088 0.286031 86 82 86
0.153631 0.71468 0.285024 84 81 85
0.148954 0.711918 0.289602 33 46 70
0.149645 0.712509 0.289425 35 48 72
0.152329 0.715075 0.290175 20 29 51
0.150967 0.715666 0.295443 55 65 87
0.161997 0.717443 0.263714 112 98 91
0.168884 0.724151 0.271626 101 86 80
0.166752 0.722177 0.272238 102 87 82
0.169791 0.72573 0.27652 95 80 74
0.171291 0.726914 0.26322 107 93 87
0.172277 0.728492 0.259492 128 113 106
0.178868 0.732439 0.261879 103 89 82
0.183268 0.735003 0.263063 86 78 74
0.180781 0.733425 0.265786 95 82 76
0.175632 0.730071 0.270462 100 87 80
0.174783 0.729478 0.272238 99 85 78
0.177368 0.732043 0.273737 104 90 83
0.160103 0.719022 0.280584 111 102 101
0.160024 0.7206 0.286228 116 108 106
0.162924 0.721586 0.282676 121 110 104
0.164818 0.723954 0.284748 110 100 94
0.165864 0.724546 0.284255 110 99 93
0.165588 0.724744 0.285321 110 98 92
0.166437 0.726125 0.286819 113 99 91
0.155703 0.720403 0.295758 51 57 74
0.164681 0.72869 0.296863 84 82 89
0.176184 0.733031 0.281118 84 74 70
0.173027 0.73165 0.284807 73 65 62
0.168725 0.731057 0.292502 108 96 90
0.151579 0.720008 0.305427 55 66 88
0.1559 0.723756 0.30294 33 41 61
0.15442 0.724349 0.30819 16 22 44
0.156867 0.723363 0.299961 45 53 72
0.158899 0.724546 0.298442 52 56 72
0.151342 0.723756 0.31322 71 83 106
0.165253 0.730465 0.299725 80 79 89
0.163832 0.729676 0.300967 82 82 93
0.163931 0.733031 0.306472 18 22 39
0.152782 0.7279 0.317344 33 44 69
0.158958 0.731255 0.313004 20 27 48
0.151066 0.729874 0.322909 44 53 74
0.148343 0.728295 0.325809 9 23 52
0.155643 0.732439 0.319101 42 54 80
0.152526 0.735201 0.327782 12 19 51
0.153631 0.735201 0.325888 18 28 59
0.147514 0.735989 0.336997 25 39 65
0.151796 0.750394 0.182222 14 29 58
0.150928 0.752171 0.183248 13 31 61
0.15586 0.752171 0.18236 90 99 120
0.152822 0.754933 0.184215 45 57 83
0.156985 0.751973 0.182065 87 96 118
0.160991 0.753749 0.183051 30 43 70
0.160083 0.754735 0.183722 35 47 72
0.18019 0.737568 0.181295 41 51 74
0.169219 0.749211 0.182419 11 27 56
0.168311 0.749408 0.182104 11 27 56
0.170561 0.749013 0.182853 11 28 58
0.172041 0.750789 0.184945 26 41 70
0.176244 0.749013 0.186504 8 22 53
0.168686 0.755524 0.186741 48 61 88
0.173461 0.752959 0.187609 24 38 66
0.17794 0.748225 0.187412 8 23 53
0.183485 0.750789 0.197219 25 40 70
0.184531 0.749803 0.197514 20 35 65
0.17652 0.755722 0.193174 28 43 73
0.179894 0.754735 0.197317 12 26 59
0.183741 0.740923 0.219061 56 45 42
0.181571 0.743291 0.21912 37 36 43
0.18161 0.754933 0.204954 15 27 55
0.18238 0.753354 0.200987 13 24 58
0.183623 0.751578 0.206315 46 61 90
0.180505 0.747237 0.218016 33 36 45
0.18161 0.751185 0.213418 41 45 57
0.180584 0.752761 0.215293 39 42 54
0.15517 0.76026 0.186642 49 64 92
0.150257 0.762628 0.188201 21 38 70
0.155249 0.763418 0.188615 41 57 86
0.164858 0.756117 0.185399 34 48 74
0.156808 0.759668 0.186326 74 84 108
0.162471 0.757498 0.185873 16 29 55
0.158268 0.762628 0.188635 68 81 105
0.153335 0.766574 0.190293 23 40 68
0.15367 0.773875 0.195265 14 33 63
0.161819 0.766969 0.193154 105 116 139
0.16551 0.770324 0.198481 76 86 108
0.167917 0.761049 0.191141 40 52 76
0.170008 0.763418 0.195068 49 58 78
0.173264 0.764206 0.199429 29 42 71
0.17425 0.763615 0.199922 11 23 53
0.168291 0.767955 0.198205 51 62 83
0.164404 0.773677 0.200454 50 60 84
0.173639 0.764997 0.200908 3 15 45
0.180288 0.757498 0.208603 25 38 67
0.179124 0.758879 0.213004 50 58 80
0.178374 0.757695 0.217345 53 56 72
0.17796 0.761444 0.214326 57 65 87
0.177684 0.762825 0.211464 45 55 78
0.176381 0.765192 0.212155 34 43 63
0.17502 0.766378 0.207143 41 51 75
0.174468 0.767561 0.20813 39 49 73
0.16843 0.772889 0.203789 43 55 78
0.170916 0.771903 0.206808 19 34 61
0.170008 0.772098 0.205249 29 41 67
0.174586 0.768152 0.210833 59 66 85
0.171468 0.774072 0.216674 31 44 71
0.172988 0.770915 0.21695 43 53 77
0.189878 0.737175 0.191082 32 41 64
0.193114 0.738161 0.197633 9 17 41
0.192147 0.740923 0.199922 23 36 67
0.186918 0.742895 0.192404 4 17 50
0.188556 0.745855 0.199783 19 33 64
0.186918 0.747829 0.20006 29 45 75
0.192305 0.740726 0.200434 23 35 65
0.193824 0.738752 0.202763 23 29 51
0.191437 0.742107 0.20446 51 62 86
0.190766 0.742107 0.207479 73 79 94
0.187964 0.744081 0.209669 44 54 75
0.186997 0.745265 0.20959 33 44 66
0.19118 0.741909 0.206335 64 72 92
0.194239 0.73678 0.21186 64 62 69
0.192186 0.738161 0.213043 116 109 110
0.186701 0.748225 0.200711 35 51 79
0.1868 0.747237 0.206196 27 39 65
0.181156 0.740923 0.22358 36 28 28
0.181926 0.740528 0.223224 46 37 36
0.180584 0.743291 0.221291 36 33 38
0.180801 0.741712 0.222909 37 29 30
0.181709 0.742107 0.219969 39 35 40
0.178059 0.743686 0.227901 27 24 32
0.177921 0.743883 0.22792 26 24 33
0.174783 0.7427 0.238852 120 109 100
0.183879 0.738949 0.232183 110 96 86
0.179065 0.740726 0.238004 111 96 85
0.176145 0.748225 0.225296 33 32 43
0.170324 0.750987 0.234432 16 19 32
0.170837 0.75138 0.233387 31 31 43
0.167936 0.752566 0.237214 15 18 33
0.154677 0.741514 0.248264 31 31 41
0.165608 0.737963 0.246626 94 79 74
0.164148 0.741514 0.244554 58 52 55
0.162056 0.73974 0.246133 78 67 67
0.152388 0.743883 0.249744 47 47 57
0.165351 0.754538 0.239997 15 20 36
0.149211 0.750394 0.253158 49 57 73
0.151717 0.755919 0.252586 19 24 37
0.148442 0.751775 0.254085 30 37 55
0.147198 0.754735 0.255546 32 40 59
0.175276 0.740528 0.243055 119 106 95
0.171705 0.743093 0.242365 88 83 83
0.173856 0.73974 0.24491 101 88 79
0.170107 0.740726 0.245344 69 61 61
0.167522 0.745067 0.24268 20 24 36
0.168351 0.741909 0.24491 51 47 51
0.185498 0.737963 0.243292 121 110 101
0.178433 0.737175 0.248146 100 88 78
0.179164 0.737766 0.246489 105 92 81
0.184511 0.737766 0.245383 119 109 101
0.167818 0.746843 0.240588 54 57 68
0.166042 0.761049 0.238635 14 19 37
0.166437 0.771508 0.238675 38 39 52
0.175336 0.756512 0.224784 26 30 44
0.173895 0.756905 0.226934 24 27 41
0.176006 0.762037 0.220541 51 57 77
0.173382 0.764602 0.225217 61 64 80
0.172455 0.762628 0.22796 41 44 60
0.169653 0.764206 0.233288 27 32 48
0.17133 0.761246 0.230703 25 29 44
0.167699 0.762825 0.236227 20 26 45
0.170738 0.76914 0.229204 90 87 97
0.171981 0.768548 0.225868 53 58 76
0.17279 0.766574 0.225454 66 70 86
0.171192 0.77348 0.221784 2 17 48
0.169495 0.76835 0.232084 63 63 74
0.167344 0.765983 0.237076 18 22 38
0.168134 0.771112 0.234472 49 49 60
0.157972 0.757103 0.24714 21 28 43
0.158366 0.758091 0.246784 21 28 43
0.150573 0.758879 0.254026 19 23 36
0.153769 0.758286 0.250967 20 25 38
0.165529 0.76835 0.240332 19 21 36
0.164878 0.769336 0.241358 19 19 32
0.164898 0.765983 0.240786 12 15 28
0.1603 0.769336 0.246469 18 16 26
0.160438 0.768943 0.246252 17 15 25
0.158722 0.770522 0.248264 23 19 25
0.160123 0.774665 0.248363 20 16 23
0.155328 0.768548 0.251244 19 21 33
0.149172 0.765983 0.25665 2 4 15
0.15586 0.771903 0.251934 10 11 23
0.187885 0.737175 0.223442 104 87 77
0.18678 0.738161 0.221489 114 97 89
0.186997 0.737371 0.236583 119 104 92
0.219752 0.737568 0.226875 47 57 73
0.215036 0.737175 0.232913 55 64 79
0.213891 0.73678 0.232657 73 78 90
0.214424 0.73678 0.232321 69 76 89
0.216239 0.736977 0.230012 62 70 83
0.224823 0.739937 0.23169 62 74 92
0.21622 0.738556 0.239049 59 66 82
0.187589 0.737371 0.241989 121 110 101
0.188773 0.736977 0.248304 116 104 96
0.187096 0.736977 0.251638 108 96 89
0.18751 0.737175 0.249566 110 98 90
0.187352 0.736582 0.256216 109 97 90
0.193548 0.737175 0.256098 120 106 98
0.195659 0.737371 0.257242 117 103 96
0.197119 0.736385 0.249981 86 75 69
0.201658 0.736977 0.253493 93 84 77
0.214148 0.738752 0.24418 43 52 68
0.207084 0.73678 0.246725 119 113 110
0.216811 0.739542 0.243548 34 45 64
0.223599 0.740923 0.239583 56 66 84
0.207774 0.737568 0.250789 94 93 96
0.207084 0.737963 0.253237 85 84 90
0.211504 0.739937 0.253512 64 72 86
0.207715 0.738752 0.255131 80 83 92
0.215727 0.740726 0.250494 50 61 80
0.217186 0.741319 0.25071 51 61 79
0.220679 0.742305 0.250178 52 64 82
0.222238 0.744081 0.254145 67 78 96
0.221784 0.745067 0.257794 58 70 89
0.151776 0.776835 0.196725 11 28 60
0.151243 0.781964 0.199902 1 19 51
0.157104 0.775849 0.19787 14 30 59
0.157163 0.778018 0.199527 19 32 63
0.156275 0.782755 0.202743 18 33 64
0.159649 0.777428 0.200514 26 39 67
0.162569 0.775651 0.200967 38 50 76
0.16328 0.77723 0.202999 48 60 85
0.162037 0.780386 0.205111 41 55 81
0.161839 0.781964 0.206551 34 49 76
0.165431 0.783938 0.213793 23 41 72
0.165746 0.781767 0.211662 16 37 68
0.148027 0.787687 0.202605 55 67 91
0.150631 0.793014 0.207143 45 57 80
0.152052 0.793212 0.207952 54 65 86
0.153216 0.792226 0.20809 53 63 84
0.160616 0.788871 0.211997 21 35 62
0.163418 0.788477 0.216279 18 30 60
0.163595 0.787884 0.215766 20 34 63
0.164977 0.787096 0.219081 8 20 53
0.167759 0.776835 0.208544 22 40 67
0.167127 0.778611 0.209846 13 34 65
0.169949 0.776046 0.212826 22 37 65
0.16914 0.777821 0.213971 15 31 61
0.169771 0.777623 0.217345 14 27 57
0.169791 0.777623 0.219417 2 12 47
0.166713 0.783346 0.217365 9 26 59
0.148974 0.798737 0.209905 37 52 79
0.155959 0.796764 0.213912 29 40 59
0.147771 0.800908 0.210734 30 46 75
0.148382 0.800315 0.210636 26 43 71
0.147416 0.801301 0.210754 32 48 77
0.15219 0.805052 0.217266 16 27 48
0.158406 0.797158 0.218193 38 51 74
0.150888 0.807617 0.21843 10 24 46
0.146942 0.811563 0.218153 17 30 51
0.166417 0.77644 0.235083 114 107 110
0.164444 0.779597 0.237412 77 72 76
0.165943 0.780978 0.229992 8 22 49
0.162333 0.784136 0.237688 93 86 88
0.164128 0.788673 0.224428 0 12 47
0.163043 0.788673 0.228631 2 13 39
0.161228 0.794198 0.220344 10 25 55
0.161346 0.794988 0.223757 7 21 46
0.162471 0.792226 0.223422 1 15 46
0.162076 0.792621 0.22064 2 15 48
0.160162 0.789858 0.236227 31 32 39
0.160399 0.792028 0.232695 9 16 29
0.168094 0.777428 0.227447 56 55 72
0.168035 0.780781 0.221626 0 10 45
0.168272 0.780978 0.21985 1 12 46
0.161149 0.784727 0.242385 61 59 65
0.159886 0.784925 0.248106 41 42 52
0.16107 0.781767 0.246863 28 30 40
0.161425 0.781964 0.245561 23 27 37
0.152703 0.77644 0.25742 12 12 21
0.153512 0.778809 0.257598 46 45 52
0.153375 0.784529 0.259018 130 131 134
0.159669 0.784136 0.249291 47 47 57
0.157123 0.783346 0.254026 120 121 125
0.156235 0.789463 0.252309 65 66 73
0.156511 0.788673 0.252427 85 86 92
0.155841 0.786108 0.255486 132 133 136
0.155111 0.790449 0.254125 35 37 43
0.152486 0.794002 0.257044 47 49 56
0.157755 0.786108 0.25219 97 97 103
0.155742 0.805052 0.226264 3 16 40
0.158465 0.799723 0.222988 26 38 60
0.160577 0.796172 0.226796 20 31 50
0.157656 0.801499 0.224093 21 34 56
0.156235 0.801301 0.233801 27 32 45
0.157775 0.798146 0.233209 28 32 42
0.156709 0.80288 0.229756 18 25 40
0.151638 0.809195 0.221153 6 19 41
0.153966 0.807617 0.224152 4 19 43
0.153355 0.808603 0.224211 7 21 45
0.155111 0.806038 0.225138 1 15 41
0.154361 0.80801 0.228118 1 15 40
0.146962 0.814523 0.221054 24 38 57
0.152072 0.811563 0.226224 7 22 46
0.15223 0.812944 0.234195 2 12 36
0.152565 0.812155 0.229815 1 13 38
0.156097 0.796172 0.240036 51 52 58
0.154795 0.799132 0.240076 36 37 45
0.153177 0.804261 0.239779 28 30 36
0.151974 0.806433 0.244279 21 23 31
0.151816 0.809195 0.240746 8 14 27
0.151184 0.812944 0.239484 10 18 35
0.14998 0.812351 0.249073 37 41 48
0.151006 0.809391 0.251757 42 46 52
0.150651 0.809589 0.256216 37 40 48
0.230032 0.736187 0.198442 0 47 90
0.242719 0.740528 0.198126 13 55 97
0.245877 0.73974 0.18534 17 76 119
0.247573 0.739542 0.183801 37 77 116
0.254913 0.742502 0.188595 36 65 102
0.262076 0.743686 0.187905 66 93 128
0.263753 0.743883 0.187115 69 94 127
0.252704 0.743093 0.195246 82 110 146
0.2544 0.743488 0.195877 102 130 167
0.2559 0.743093 0.190392 38 67 106
0.264089 0.745265 0.193449 47 73 108
0.234985 0.738949 0.204499 6 52 97
0.236208 0.739345 0.203769 7 52 97
0.239523 0.740133 0.202645 7 48 90
0.227487 0.737568 0.213122 47 64 88
0.229262 0.738556 0.216101 74 91 117
0.23167 0.739345 0.217838 56 76 103
0.235576 0.73974 0.215588 29 58 94
0.247731 0.741909 0.200375 43 78 117
0.251835 0.743093 0.201125 77 105 142
0.252743 0.743291 0.202999 63 93 130
0.251184 0.743093 0.208229 39 73 113
0.256709 0.744474 0.200573 73 101 139
0.260458 0.745855 0.204479 43 67 101
0.262254 0.746053 0.200593 36 74 113
0.258919 0.745855 0.209846 41 62 92
0.251421 0.743686 0.211957 30 72 114
0.25369 0.744081 0.21032 38 69 107
0.249172 0.743488 0.21543 31 62 98
0.24708 0.743883 0.219692 34 63 99
0.251835 0.744474 0.215135 38 67 104
0.264543 0.747434 0.207932 18 62 101
0.260419 0.746646 0.211464 38 60 91
0.255407 0.746843 0.218548 40 65 97
0.269633 0.744474 0.184452 50 72 99
0.265904 0.746053 0.194456 52 78 113
0.27279 0.746251 0.190016 47 73 104
0.278493 0.746843 0.18903 46 69 95
0.2809 0.747039 0.185793 62 81 106
0.284077 0.74842 0.189069 60 78 99
0.274428 0.746448 0.190529 60 83 112
0.271192 0.747237 0.196232 67 87 114
0.278394 0.747237 0.190806 56 78 103
0.27796 0.747039 0.190411 52 76 102
0.274823 0.748225 0.19858 66 85 109
0.286682 0.748815 0.185616 52 74 101
0.287392 0.749408 0.190135 61 79 103
0.295008 0.749408 0.180781 54 73 98
0.294693 0.749803 0.184176 42 63 90
0.297791 0.750197 0.183051 57 78 104
0.30294 0.750789 0.183387 68 85 107
0.30373 0.751578 0.1868 48 66 92
0.293311 0.75138 0.19268 101 116 137
0.293232 0.751775 0.194219 82 99 122
0.292502 0.752959 0.199093 60 79 103
0.298224 0.753354 0.195877 57 80 108
0.300237 0.753354 0.195739 52 76 102
0.301914 0.753354 0.195304 44 66 89
0.265529 0.747039 0.204085 36 83 125
0.264799 0.747039 0.203769 34 82 125
0.269693 0.74842 0.206058 60 79 108
0.281906 0.751185 0.203414 87 100 121
0.272199 0.750394 0.211682 87 106 134
0.272336 0.750592 0.213004 78 99 130
0.265036 0.749211 0.215016 46 70 99
0.273876 0.751973 0.218115 50 81 116
0.27285 0.75138 0.216635 61 87 121
0.282991 0.752959 0.211326 53 75 103
0.27794 0.752761 0.219259 42 75 112
0.298027 0.754538 0.203572 61 80 105
0.295857 0.754538 0.206177 65 83 108
0.284392 0.753354 0.212925 53 78 108
0.287254 0.754538 0.217463 35 64 100
0.303039 0.757103 0.216772 56 77 105
0.23019 0.740528 0.224606 99 113 131
0.231393 0.740331 0.222317 56 76 102
0.22798 0.740133 0.226638 81 90 106
0.228513 0.740133 0.225375 90 99 116
0.232656 0.741514 0.225553 45 69 97
0.242561 0.742895 0.221942 33 72 113
0.243213 0.742502 0.220186 42 72 108
0.244949 0.743093 0.21993 34 65 100
0.237076 0.742502 0.225001 46 71 101
0.239957 0.743883 0.228177 30 66 104
0.22871 0.741121 0.230782 76 87 104
0.234116 0.743488 0.232163 50 74 103
0.228611 0.742305 0.237293 82 90 105
0.235576 0.743883 0.231413 33 62 95
0.24779 0.745462 0.223027 59 82 113
0.25152 0.746646 0.221744 144 164 195
0.252072 0.747039 0.222336 133 152 184
0.247771 0.747039 0.229204 34 63 98
0.253986 0.749013 0.228749 50 73 105
0.25296 0.748027 0.224803 107 128 159
0.258623 0.749211 0.22212 30 60 96
0.257637 0.749211 0.223422 35 60 92
0.261287 0.749606 0.220975 31 62 100
0.258031 0.749606 0.225336 30 54 85
0.259985 0.750592 0.227881 27 55 88
0.260616 0.750394 0.225099 34 55 83
0.246586 0.747237 0.23242 33 58 90
0.227723 0.742502 0.241121 64 74 90
0.226835 0.742107 0.240984 60 70 86
0.226322 0.742502 0.243232 45 58 76
0.229775 0.745265 0.248955 34 50 74
0.229164 0.745067 0.249053 42 58 81
0.237865 0.746843 0.240036 29 51 79
0.240786 0.748027 0.241101 41 65 96
0.240095 0.749606 0.248304 37 54 80
0.234531 0.748225 0.25075 18 36 58
0.227881 0.747039 0.258268 11 31 58
0.22723 0.747039 0.259057 10 29 56
0.237589 0.750394 0.253414 17 35 57
0.237037 0.749408 0.251264 18 36 58
0.236109 0.750789 0.257222 38 55 77
0.243153 0.752368 0.256058 38 62 91
0.247258 0.749606 0.242147 83 98 123
0.249724 0.750987 0.245423 71 89 117
0.25665 0.751973 0.241477 51 73 103
0.257637 0.753552 0.246449 32 51 79
0.260576 0.75434 0.246725 40 58 84
0.262037 0.754735 0.248106 30 49 76
0.249546 0.751775 0.249408 36 56 84
0.252881 0.753354 0.251224 13 38 72
0.249882 0.753354 0.254262 20 50 87
0.257104 0.754735 0.251362 22 42 73
0.272495 0.752171 0.221093 44 72 105
0.274231 0.752566 0.222336 36 67 103
0.268588 0.751973 0.227171 53 74 106
0.277782 0.753354 0.223185 39 68 104
0.273896 0.753749 0.230999 41 62 90
0.272159 0.75434 0.237628 49 71 101
0.292937 0.756314 0.222415 40 63 95
0.301993 0.757695 0.223659 56 79 106
0.284728 0.756117 0.232578 57 77 105
0.294022 0.758286 0.23532 74 93 121
0.295541 0.757893 0.231986 62 82 112
0.303512 0.759274 0.232025 41 66 99
0.266989 0.756512 0.252073 27 58 91
0.285636 0.759077 0.251697 46 66 95
0.291851 0.76026 0.254499 52 72 101
0.301875 0.761444 0.255486 49 67 97
0.303453 0.761642 0.255762 41 59 90
0.18532 0.737371 0.272909 68 60 57
0.181847 0.738949 0.285695 65 60 60
0.182775 0.738949 0.284886 65 60 61
0.172712 0.736977 0.296015 76 70 70
0.176342 0.739345 0.29416 66 62 62
0.188812 0.737175 0.263891 100 90 85
0.187017 0.736977 0.265214 84 75 71
0.189385 0.737766 0.268114 98 85 78
0.195561 0.738358 0.264957 131 122 113
0.200809 0.739147 0.263418 75 68 65
0.19706 0.739345 0.26695 114 108 104
0.205288 0.741712 0.266259 28 38 55
0.189365 0.739542 0.276381 95 89 88
0.192877 0.73974 0.274093 130 122 116
0.197928 0.740726 0.271666 80 79 83
0.203157 0.743686 0.27287 54 59 72
0.212589 0.743291 0.261721 44 57 74
0.207873 0.744869 0.270107 36 42 59
0.222929 0.747237 0.262885 84 96 116
0.206768 0.747237 0.277507 46 52 65
0.208465 0.748027 0.277763 46 52 67
0.214365 0.750987 0.278591 40 50 69
0.219238 0.749408 0.271113 38 50 67
0.1883 0.740726 0.281433 79 74 74
0.186306 0.740923 0.285103 70 66 68
0.187885 0.744277 0.291279 50 49 51
0.199764 0.746251 0.283071 60 61 70
0.198757 0.746053 0.283959 65 66 74
0.199467 0.750394 0.292207 51 55 64
0.204341 0.752171 0.290747 38 45 59
0.204065 0.750987 0.288911 50 56 70
0.208781 0.749013 0.279913 40 47 64
0.214759 0.752171 0.281039 31 42 61
0.213221 0.751578 0.281019 39 48 65
0.20959 0.752566 0.286326 34 44 59
0.214977 0.755328 0.286997 26 36 54
0.215628 0.753157 0.282616 25 35 54
0.221883 0.753947 0.279598 71 83 98
0.209629 0.755131 0.291141 45 55 75
0.208603 0.754143 0.290292 47 55 72
0.215233 0.756314 0.288616 23 32 51
0.206729 0.757103 0.297179 43 51 71
0.220561 0.760063 0.293055 23 37 55
0.223066 0.759865 0.290332 34 48 68
0.223501 0.762628 0.294535 24 39 60
0.175276 0.741514 0.299744 70 65 67
0.175178 0.741909 0.300494 76 72 73
0.176184 0.745658 0.304618 89 85 88
0.178078 0.743883 0.30004 71 68 70
0.167562 0.738358 0.309235 92 88 89
0.166693 0.739147 0.312116 64 63 71
0.167265 0.743883 0.317049 88 88 97
0.16843 0.745265 0.316634 93 92 101
0.184472 0.749999 0.302743 76 74 77
0.182873 0.746646 0.299527 71 69 73
0.18311 0.750197 0.304085 68 67 71
0.186168 0.752171 0.304401 84 83 85
0.175711 0.75138 0.311958 49 50 58
0.172376 0.752566 0.31772 70 70 77
0.173303 0.752566 0.316358 57 55 62
0.176875 0.755328 0.315115 52 53 63
0.156531 0.736385 0.322948 34 47 73
0.15888 0.739345 0.323166 47 60 84
0.164385 0.746053 0.321725 37 43 61
0.151539 0.73678 0.331433 9 19 52
0.154519 0.741712 0.331867 49 59 89
0.158524 0.745658 0.32946 8 13 37
0.165647 0.750592 0.32427 32 38 56
0.154874 0.747237 0.337294 5 6 37
0.160241 0.750592 0.332183 85 92 112
0.162924 0.754538 0.332617 47 52 71
0.167542 0.746843 0.318943 55 57 70
0.170126 0.750592 0.318785 97 93 96
0.177131 0.757498 0.316792 51 52 62
0.165154 0.759668 0.334235 17 20 38
0.165095 0.764009 0.336445 11 13 30
0.165608 0.770126 0.337609 11 11 31
0.172988 0.759077 0.322119 43 44 57
0.173303 0.758091 0.321113 42 43 56
0.175474 0.7573 0.318193 42 44 54
0.16991 0.759668 0.326973 45 48 62
0.172277 0.759472 0.323007 42 44 58
0.177112 0.763023 0.320936 41 44 56
0.177644 0.764997 0.322139 38 41 53
0.183958 0.76539 0.319396 64 67 74
0.179992 0.766378 0.321844 40 43 53
0.176421 0.767561 0.325119 22 25 38
0.181472 0.773086 0.32654 5 6 20
0.185537 0.774072 0.32506 6 10 25
0.169653 0.765983 0.331887 50 52 65
0.17281 0.773086 0.332557 37 37 50
0.167976 0.773677 0.336564 43 44 57
0.190568 0.752761 0.301717 72 72 75
0.191654 0.75138 0.299389 62 62 66
0.194021 0.753157 0.300257 40 42 49
0.191535 0.753157 0.301737 69 68 71
0.18678 0.752368 0.304183 80 80 82
0.188832 0.754735 0.305466 71 72 75
0.193331 0.7573 0.305545 62 62 72
0.19416 0.758286 0.306492 49 50 60
0.196981 0.756709 0.302822 29 31 45
0.199981 0.761246 0.30667 57 64 81
0.202566 0.762825 0.30742 24 31 54
0.192995 0.763023 0.31324 24 27 41
0.196705 0.762037 0.309413 28 33 53
0.198145 0.763418 0.310379 47 55 74
0.215174 0.764009 0.302309 0 2 36
0.212411 0.764009 0.303927 12 22 50
0.214602 0.76618 0.305309 26 40 65
0.220008 0.767166 0.303039 33 48 73
0.220778 0.766969 0.302428 31 46 71
0.223047 0.768152 0.30298 33 46 69
0.212056 0.769731 0.311918 6 10 40
0.213082 0.769534 0.310991 0 0 34
0.210044 0.770915 0.314207 7 12 44
0.210438 0.77348 0.316594 22 28 58
0.214503 0.773086 0.314267 4 12 45
0.214996 0.775058 0.31618 4 11 42
0.216614 0.77131 0.311247 9 23 53
0.220975 0.77131 0.309037 13 24 51
0.186622 0.765785 0.318726 49 52 63
0.189247 0.767955 0.319357 12 15 32
0.190332 0.768152 0.31914 13 16 32
0.188023 0.774665 0.324744 11 14 31
0.198954 0.77131 0.31914 12 17 43
0.196626 0.77427 0.322574 4 7 40
0.204696 0.773677 0.31922 9 15 42
0.15075 0.782557 0.261326 117 118 125
0.148067 0.783543 0.263793 91 93 103
0.149329 0.785517 0.263359 99 102 114
0.151776 0.790647 0.260695 55 59 73
0.149053 0.792423 0.264444 108 109 120
0.15004 0.796172 0.261977 92 94 106
0.146942 0.798341 0.2662 118 119 126
0.150198 0.800908 0.25965 82 83 90
0.148895 0.805052 0.261682 87 89 94
0.149605 0.806826 0.260321 59 62 67
0.149843 0.81097 0.259787 38 41 49
0.148816 0.812351 0.262056 41 44 51
0.147001 0.81176 0.264681 35 39 45
0.179558 0.777428 0.330644 1 1 15
0.181571 0.786701 0.333998 0 1 15
0.177625 0.787489 0.336188 38 39 48
0.185596 0.795579 0.336997 6 9 27
0.218607 0.77723 0.316911 16 27 51
0.192818 0.779004 0.326638 5 6 30
0.205604 0.775454 0.320443 15 21 50
0.202842 0.77723 0.322752 4 9 37
0.198067 0.777428 0.324488 2 2 32
0.197672 0.783346 0.327842 7 8 30
0.198244 0.781374 0.326737 4 4 27
0.202881 0.781571 0.325514 3 5 31
0.187629 0.793607 0.335064 5 7 26
0.186938 0.790054 0.333505 4 6 27
0.199448 0.790252 0.329874 1 4 28
0.200651 0.78828 0.328888 4 8 32
0.202131 0.788871 0.328769 2 6 30
0.20444 0.790449 0.328908 0 3 27
0.211918 0.776046 0.318391 35 41 67
0.21545 0.779597 0.320403 19 28 54
0.211859 0.78019 0.321923 16 22 50
0.211622 0.781767 0.323166 9 17 48
0.220127 0.779004 0.31843 51 62 86
0.221172 0.780583 0.319495 58 69 91
0.220817 0.783148 0.322021 26 35 60
0.217621 0.784334 0.323757 25 34 59
0.214306 0.787884 0.326678 20 27 53
0.206315 0.789858 0.328355 0 4 28
0.214681 0.794988 0.330545 9 15 41
0.214148 0.792028 0.328908 9 15 41
0.217127 0.794002 0.330032 10 16 42
0.22285 0.794791 0.330525 17 23 47
0.190371 0.797553 0.335873 8 9 29
0.193745 0.799527 0.335991 32 34 50
0.1941 0.797553 0.334827 23 24 41
0.191397 0.802092 0.33755 42 43 58
0.196153 0.79992 0.335438 41 44 57
0.196291 0.801301 0.336346 42 45 57
0.196054 0.798539 0.334728 30 32 48
0.209353 0.804064 0.337431 64 69 77
0.221823 0.801301 0.335676 23 31 51
0.218232 0.802289 0.336406 28 37 53
0.221804 0.798737 0.333584 17 24 46
0.217779 0.79992 0.334452 22 31 49
0.2177 0.798934 0.333623 19 27 47
0.227072 0.747237 0.259886 17 35 60
0.228078 0.748027 0.260853 22 40 66
0.230387 0.749211 0.261544 25 43 70
0.233524 0.753354 0.2677 39 55 76
0.236701 0.753749 0.265628 41 58 81
0.235399 0.752566 0.264128 56 72 92
0.239523 0.755131 0.26618 52 68 92
0.226421 0.751775 0.271527 33 48 68
0.24635 0.754933 0.260458 39 61 88
0.244495 0.756512 0.2662 34 52 76
0.237707 0.756512 0.271133 62 76 98
0.237392 0.756709 0.271527 64 78 99
0.235596 0.756314 0.272633 65 79 100
0.235616 0.7573 0.275119 39 55 75
0.24631 0.756314 0.264484 26 44 66
0.253769 0.758091 0.265411 57 79 108
0.261938 0.757893 0.261583 44 64 95
0.264246 0.759274 0.265411 45 63 91
0.249546 0.759274 0.271626 50 72 97
0.252408 0.76026 0.272948 55 76 101
0.230525 0.759274 0.283998 48 62 82
0.23167 0.761246 0.286623 41 55 74
0.242186 0.763418 0.28459 33 48 68
0.227545 0.762825 0.292344 26 41 62
0.227329 0.764602 0.295443 24 41 62
0.243292 0.76914 0.297041 26 41 61
0.260261 0.768745 0.292384 73 88 109
0.255466 0.769336 0.294732 41 56 78
0.262017 0.770324 0.29568 45 57 80
0.262392 0.77131 0.297554 42 55 78
0.271015 0.759077 0.263359 51 77 107
0.271883 0.760853 0.268114 39 62 89
0.280802 0.760655 0.262076 35 55 83
0.27429 0.761444 0.26918 43 60 86
0.266614 0.762825 0.276401 50 70 97
0.27133 0.763023 0.276224 33 53 80
0.282538 0.762825 0.270344 77 93 119
0.278079 0.763615 0.274803 52 69 94
0.288181 0.761049 0.260222 37 55 82
0.288556 0.76243 0.267068 35 52 79
0.288181 0.763811 0.273363 68 83 109
0.28749 0.764009 0.274744 80 96 122
0.299448 0.764009 0.27212 45 63 90
0.298718 0.764206 0.273856 36 53 82
0.296212 0.764799 0.277901 41 58 83
0.299803 0.764997 0.278197 67 84 108
0.276599 0.76539 0.281886 21 38 63
0.283189 0.765588 0.281453 53 70 95
0.268311 0.765983 0.284551 71 88 113
0.271981 0.766574 0.285024 25 43 68
0.274389 0.766378 0.284116 17 34 59
0.27575 0.76618 0.28392 19 36 62
0.268785 0.769336 0.292029 37 53 76
0.270936 0.770126 0.293745 51 66 90
0.27429 0.77131 0.296784 50 65 89
0.279538 0.770126 0.295245 50 69 95
0.279657 0.770522 0.296666 43 61 87
0.289089 0.764997 0.279124 44 63 89
0.288674 0.766378 0.283584 27 44 67
0.291062 0.767759 0.288299 41 59 85
0.285951 0.769534 0.295896 21 39 67
0.289562 0.769731 0.297337 28 48 78
0.300967 0.76835 0.293391 31 50 78
0.296508 0.769336 0.298343 25 44 70
0.294436 0.768745 0.293509 19 39 67
0.235359 0.770324 0.302684 67 80 96
0.242364 0.770126 0.299152 18 33 53
0.240312 0.774665 0.307755 40 53 70
0.229499 0.774072 0.310202 40 51 70
0.231157 0.773086 0.308347 34 46 65
0.247218 0.770915 0.298658 20 34 55
0.252783 0.775454 0.305309 31 47 68
0.258919 0.772494 0.299883 23 38 60
0.279381 0.772494 0.301539 63 80 107
0.282104 0.77348 0.305663 44 62 87
0.30221 0.771112 0.306314 44 59 83
0.302092 0.770915 0.305624 40 55 79
0.299231 0.773086 0.312392 36 51 71
0.303473 0.772691 0.314445 46 60 80
0.298146 0.775058 0.320995 36 52 70
0.230525 0.77644 0.313004 42 54 73
0.228946 0.779004 0.316339 36 49 69
0.230426 0.7794 0.316575 44 58 78
0.235655 0.775454 0.310656 70 82 101
0.236287 0.776835 0.312648 83 96 115
0.251204 0.779992 0.312866 25 38 59
0.249921 0.782952 0.317483 34 48 67
0.249172 0.781176 0.31478 26 40 60
0.254381 0.782755 0.317423 25 39 60
0.256965 0.778018 0.309787 52 67 88
0.227822 0.783741 0.321448 22 31 53
0.231275 0.780781 0.318074 39 52 72
0.235655 0.788673 0.326047 18 30 53
0.240588 0.788477 0.325809 53 66 88
0.22794 0.791633 0.328552 20 28 53
0.228434 0.793409 0.329914 15 21 45
0.246646 0.784136 0.319634 40 55 74
0.264641 0.785122 0.325514 20 35 56
0.246468 0.789266 0.327349 26 39 60
0.250059 0.786701 0.323896 26 40 60
0.247751 0.792423 0.33167 33 45 66
0.25148 0.792423 0.332557 38 50 71
0.248362 0.793607 0.333169 32 43 64
0.258702 0.789266 0.330466 30 44 63
0.260182 0.790449 0.332992 13 26 49
0.225829 0.796764 0.332143 20 25 48
0.231018 0.795186 0.331492 20 25 48
0.233425 0.796764 0.33313 20 25 49
0.243923 0.795186 0.333879 20 29 51
0.267936 0.778414 0.313082 30 48 71
0.281196 0.77644 0.315096 70 80 95
0.280111 0.776242 0.313891 52 66 88
0.285182 0.775454 0.315273 69 79 90
0.269258 0.781571 0.31991 51 65 87
0.267285 0.781374 0.318726 34 50 72
0.27721 0.779597 0.320047 82 91 102
0.276974 0.78236 0.325888 70 80 96
0.282301 0.780583 0.325691 70 74 87
0.284077 0.781767 0.330683 82 89 103
0.266713 0.789266 0.33459 50 62 79
0.269002 0.790054 0.337649 58 69 85
0.285281 0.777428 0.320482 63 71 82
0.294061 0.775849 0.320522 40 55 72
0.28461 0.778809 0.323304 36 40 50
0.296863 0.777428 0.326126 37 47 63
0.298974 0.776637 0.325632 33 45 60
0.291022 0.779597 0.329045 56 64 78
0.290056 0.779597 0.32871 62 70 84
0.288023 0.780978 0.331611 63 71 85
0.284392 0.781571 0.330644 83 91 105
0.298343 0.778809 0.332262 68 76 91
0.111741 0.816692 0.213813 26 42 70
0.110813 0.822217 0.216023 40 53 76
0.114582 0.822612 0.215707 30 39 58
0.123441 0.816495 0.212806 104 96 95
0.120521 0.81985 0.214207 90 84 86
0.121212 0.824389 0.2162 85 83 87
0.122415 0.824191 0.216141 100 95 95
0.125198 0.82794 0.218588 55 54 62
0.127664 0.823401 0.216536 108 102 102
0.132538 0.823994 0.21837 52 53 59
0.135715 0.82202 0.218568 43 50 62
0.141595 0.81768 0.219259 17 26 43
0.100711 0.815904 0.220758 35 50 71
0.101046 0.823796 0.222041 67 72 87
0.101421 0.82281 0.221508 64 70 85
0.102822 0.824586 0.220581 63 66 78
0.094752 0.816495 0.23019 8 37 71
0.096093 0.82498 0.2265 42 55 81
0.092226 0.831688 0.228769 68 69 87
0.097021 0.833464 0.225435 21 37 61
0.102408 0.83386 0.222396 48 61 86
0.104933 0.829518 0.219969 36 46 62
0.106551 0.83386 0.221311 44 61 86
0.107025 0.833464 0.220975 40 57 83
0.089029 0.824782 0.239089 23 50 80
0.08901 0.825375 0.237668 16 43 77
0.087628 0.828137 0.248915 14 35 66
0.087628 0.827742 0.247257 12 36 68
0.084905 0.832281 0.242068 24 45 73
0.084609 0.832874 0.23974 39 57 84
0.087924 0.826361 0.254618 11 31 59
0.085675 0.831688 0.250435 9 33 63
0.0853 0.831688 0.255604 18 35 61
0.092739 0.817876 0.242207 14 41 74
0.089503 0.823796 0.241279 21 50 81
0.092265 0.81472 0.251224 3 19 50
0.089187 0.823598 0.251994 13 37 67
0.088319 0.823796 0.257755 12 31 57
0.084728 0.838398 0.236997 48 58 78
0.087293 0.843331 0.23313 36 46 64
0.087411 0.839384 0.232657 73 74 88
0.087116 0.844317 0.233347 31 43 61
0.087865 0.848658 0.233268 74 82 102
0.08386 0.845107 0.237688 20 38 61
0.103335 0.835832 0.22283 52 64 91
0.088615 0.838201 0.231314 72 73 88
0.088694 0.841752 0.231492 55 61 77
0.09041 0.839975 0.229717 70 73 87
0.096705 0.847277 0.229282 58 66 86
0.105486 0.844909 0.22725 16 34 59
0.094811 0.848855 0.230269 39 46 68
0.089582 0.853197 0.23384 45 55 78
0.093548 0.851025 0.231492 45 53 75
0.093627 0.852406 0.232222 40 48 71
0.099231 0.850434 0.230506 43 53 75
0.083386 0.835636 0.248797 7 30 60
0.082301 0.837806 0.251106 15 35 64
0.080407 0.841554 0.250612 17 38 67
0.081768 0.844909 0.241299 23 37 58
0.08015 0.846488 0.243687 12 37 65
0.079696 0.849053 0.243252 11 37 67
0.078513 0.84846 0.245838 19 42 70
0.080111 0.853787 0.242305 45 55 74
0.07796 0.846881 0.251066 20 42 70
0.077368 0.850039 0.258406 28 44 66
0.112234 0.831688 0.220009 7 24 52
0.111642 0.832281 0.220403 9 26 54
0.126243 0.831492 0.220778 46 49 59
0.136622 0.823994 0.219989 19 26 43
0.146626 0.81689 0.223323 14 28 47
0.145837 0.818469 0.223915 6 19 40
0.142897 0.818469 0.220975 0 11 33
0.13901 0.823994 0.221705 9 18 36
0.130032 0.828532 0.21989 56 55 62
0.135379 0.824782 0.21989 42 47 56
0.134767 0.8309 0.223698 26 33 47
0.139878 0.825967 0.223639 10 20 37
0.143114 0.824586 0.225731 23 31 46
0.137668 0.829914 0.224645 12 24 40
