ply
format ascii 1.0
comment PCL generated
element vertex 1290
property float x
property float y
property float z
property uchar red
property uchar green
property uchar blue
element camera 0
property float view_px
property float view_py
property float view_pz
property float x_axisx
property float x_axisy
property float x_axisz
property float y_axisx
property float y_axisy
property float y_axisz
property float z_axisx
property float z_axisy
property float z_axisz
property float focal
property float scalex
property float scaley
property float centerx
property float centery
property int viewportx
property int viewporty
property float k1
property float k2
end_header
0.075237 0.590719 0.403724 103 123 150
0.075237 0.597979 0.396464 52 83 125
0.075237 0.597979 0.403724 83 104 134
0.060717 0.576199 0.410984 28 73 126
0.067977 0.576199 0.410984 32 71 120
0.067977 0.576199 0.418244 45 82 130
0.067977 0.583459 0.410984 46 76 117
0.067977 0.583459 0.418244 70 101 145
0.075237 0.576199 0.418244 45 78 123
0.075237 0.583459 0.410984 86 108 137
0.075237 0.583459 0.418244 76 102 137
0.067977 0.576199 0.425504 44 84 134
0.075237 0.576199 0.425504 39 76 124
0.075237 0.576199 0.432764 30 68 115
0.075237 0.583459 0.425504 45 77 122
0.075237 0.590719 0.410984 132 148 169
0.075237 0.590719 0.418244 109 129 153
0.060717 0.547159 0.440024 43 78 126
0.067977 0.547159 0.440024 35 72 123
0.067977 0.547159 0.447284 15 52 99
0.067977 0.554419 0.440024 51 90 140
0.075237 0.547159 0.447284 23 64 113
0.075237 0.554419 0.440024 29 72 124
0.075237 0.554419 0.447284 32 73 123
0.075237 0.547159 0.454544 30 67 114
0.075237 0.547159 0.461804 24 59 105
0.075237 0.554419 0.454544 43 84 133
0.075237 0.561679 0.440024 49 94 143
0.075237 0.561679 0.447284 50 89 137
0.075237 0.568939 0.440024 68 113 158
0.067977 0.605239 0.381944 24 64 112
0.075237 0.605239 0.381944 26 63 110
0.075237 0.605239 0.389204 28 63 109
0.075237 0.612499 0.381944 23 58 103
0.075237 0.612499 0.389204 25 62 110
0.075237 0.605239 0.396464 38 73 117
0.075237 0.852079 0.265784 26 38 58
0.075237 0.852079 0.273044 23 35 53
0.075237 0.859339 0.265784 36 51 73
0.075237 0.859339 0.273044 12 25 47
0.075237 0.852079 0.280304 32 42 57
0.075237 0.859339 0.280304 54 60 70
0.075237 0.859339 0.287564 50 53 60
0.067977 0.873859 0.265784 14 30 55
0.067977 0.873859 0.273044 28 41 63
0.075237 0.866599 0.265784 12 34 61
0.075237 0.866599 0.273044 24 37 59
0.075237 0.873859 0.265784 8 27 53
0.075237 0.873859 0.273044 28 43 65
0.067977 0.873859 0.280304 33 45 63
0.067977 0.873859 0.287564 61 72 90
0.075237 0.866599 0.280304 54 62 78
0.075237 0.866599 0.287564 41 49 60
0.075237 0.873859 0.280304 40 52 71
0.075237 0.873859 0.287564 35 45 62
0.067977 0.881119 0.265784 50 57 73
0.067977 0.881119 0.273044 30 40 58
0.067977 0.888379 0.265784 101 102 112
0.067977 0.888379 0.273044 51 55 68
0.075237 0.888379 0.265784 41 50 64
0.067977 0.881119 0.280304 17 29 47
0.067977 0.881119 0.287564 16 26 43
0.067977 0.888379 0.280304 13 22 38
0.067977 0.888379 0.287564 37 44 57
0.075237 0.881119 0.287564 23 34 50
0.075237 0.866599 0.294824 44 49 57
0.075237 0.866599 0.302084 81 83 89
0.075237 0.873859 0.294824 22 31 46
0.075237 0.873859 0.302084 34 40 50
0.075237 0.873859 0.309344 19 25 36
0.067977 0.881119 0.294824 16 24 39
0.067977 0.888379 0.294824 26 31 44
0.067977 0.888379 0.302084 17 23 36
0.075237 0.881119 0.294824 13 22 38
0.075237 0.881119 0.302084 14 21 36
0.075237 0.888379 0.302084 19 26 40
0.067977 0.888379 0.309344 35 38 51
0.067977 0.888379 0.316604 7 10 23
0.075237 0.881119 0.309344 15 19 33
0.075237 0.881119 0.316604 19 23 35
0.075237 0.888379 0.309344 13 18 31
0.075237 0.888379 0.316604 16 19 32
0.067977 0.888379 0.323864 29 33 42
0.075237 0.881119 0.323864 16 20 30
0.075237 0.888379 0.323864 19 24 33
0.075237 0.888379 0.331124 18 23 32
0.075237 0.888379 0.338384 32 35 43
0.075237 0.888379 0.345644 38 39 44
0.075237 0.888379 0.352904 20 20 26
0.075237 0.888379 0.360164 23 24 31
0.067977 0.888379 0.374684 24 27 34
0.075237 0.881119 0.374684 48 48 53
0.075237 0.888379 0.367424 13 15 21
0.075237 0.888379 0.374684 42 45 51
0.017157 0.830299 0.490844 18 17 21
0.017157 0.859339 0.432764 22 23 25
0.017157 0.866599 0.425504 42 38 28
0.017157 0.866599 0.432764 57 52 39
0.017157 0.873859 0.425504 64 56 34
0.017157 0.873859 0.432764 95 83 48
0.017157 0.881119 0.418244 60 52 27
0.017157 0.888379 0.418244 81 74 52
0.017157 0.881119 0.425504 104 95 62
0.017157 0.881119 0.432764 142 134 111
0.017157 0.888379 0.425504 134 126 103
0.017157 0.888379 0.432764 129 122 115
0.017157 0.844819 0.454544 26 28 32
0.017157 0.844819 0.461804 22 22 27
0.00989701 0.859339 0.447284 72 62 37
0.017157 0.852079 0.440024 22 23 27
0.017157 0.852079 0.447284 22 22 27
0.017157 0.859339 0.440024 52 50 46
0.017157 0.859339 0.447284 59 55 47
0.00989701 0.852079 0.461804 75 66 46
0.00989701 0.859339 0.454544 79 68 41
0.00989701 0.859339 0.461804 132 117 83
0.017157 0.852079 0.454544 33 30 30
0.017157 0.852079 0.461804 30 29 28
0.017157 0.859339 0.454544 46 42 38
0.00989701 0.844819 0.469064 52 47 38
0.00989701 0.844819 0.476324 75 66 46
0.017157 0.837559 0.476324 22 21 26
0.017157 0.844819 0.469064 32 31 32
0.017157 0.844819 0.476324 38 35 31
0.00989701 0.844819 0.483584 78 68 47
0.00989701 0.844819 0.490844 62 54 39
0.017157 0.837559 0.483584 37 35 32
0.017157 0.837559 0.490844 40 36 30
0.017157 0.844819 0.483584 69 62 46
0.00989701 0.852079 0.469064 86 73 43
0.00989701 0.852079 0.476324 116 102 70
0.00989701 0.859339 0.469064 122 108 81
0.00989701 0.859339 0.476324 130 121 110
0.017157 0.852079 0.469064 49 45 38
0.017157 0.859339 0.469064 100 95 104
0.017157 0.859339 0.476324 79 76 87
0.00989701 0.852079 0.483584 76 69 62
0.00989701 0.852079 0.490844 81 81 87
0.00989701 0.859339 0.483584 176 169 154
0.017157 0.852079 0.483584 105 103 108
0.017157 0.852079 0.490844 98 98 107
0.017157 0.859339 0.483584 92 89 100
0.017157 0.859339 0.490844 92 89 102
0.00989701 0.866599 0.440024 82 69 28
0.00989701 0.866599 0.447284 84 70 31
0.00989701 0.873859 0.440024 111 100 66
0.00989701 0.873859 0.447284 132 122 91
0.017157 0.866599 0.440024 79 68 39
0.017157 0.866599 0.447284 84 69 33
0.017157 0.873859 0.440024 147 138 117
0.017157 0.873859 0.447284 147 140 129
0.00989701 0.866599 0.454544 122 110 77
0.00989701 0.866599 0.461804 154 142 123
0.017157 0.866599 0.454544 118 110 99
0.017157 0.866599 0.461804 90 87 100
0.017157 0.873859 0.454544 96 94 103
0.017157 0.873859 0.461804 92 91 107
0.017157 0.881119 0.440024 124 119 110
0.017157 0.881119 0.447284 104 101 104
0.017157 0.866599 0.469064 84 82 93
0.017157 0.866599 0.476324 85 84 96
0.075237 0.830299 0.432764 16 21 31
0.046197 0.830299 0.461804 16 22 29
0.031677 0.830299 0.476324 20 23 29
0.024417 0.830299 0.483584 11 14 21
0.024417 0.830299 0.490844 11 13 19
0.031677 0.830299 0.483584 17 20 26
0.031677 0.830299 0.490844 9 12 17
0.038937 0.830299 0.469064 22 25 33
0.038937 0.830299 0.476324 25 28 35
0.046197 0.823039 0.476324 25 28 33
0.046197 0.830299 0.469064 22 26 33
0.046197 0.830299 0.476324 18 22 27
0.038937 0.823039 0.483584 17 20 26
0.038937 0.823039 0.490844 27 28 32
0.038937 0.830299 0.483584 26 28 33
0.046197 0.823039 0.483584 23 26 30
0.046197 0.823039 0.490844 24 26 32
0.046197 0.830299 0.483584 15 18 23
0.060717 0.830299 0.447284 24 29 37
0.053457 0.823039 0.461804 24 29 37
0.053457 0.830299 0.454544 29 33 40
0.053457 0.830299 0.461804 25 28 37
0.060717 0.823039 0.461804 27 28 36
0.060717 0.830299 0.454544 24 28 36
0.060717 0.830299 0.461804 23 26 36
0.075237 0.815779 0.454544 16 21 29
0.075237 0.815779 0.461804 14 17 24
0.067977 0.830299 0.440024 23 27 36
0.067977 0.830299 0.447284 19 25 34
0.075237 0.823039 0.440024 12 16 26
0.075237 0.823039 0.447284 19 25 34
0.075237 0.830299 0.440024 20 25 34
0.075237 0.830299 0.447284 22 28 37
0.067977 0.823039 0.454544 23 26 34
0.067977 0.823039 0.461804 22 24 30
0.067977 0.830299 0.454544 16 21 30
0.075237 0.823039 0.454544 18 23 32
0.075237 0.823039 0.461804 11 14 21
0.060717 0.815779 0.476324 27 29 33
0.053457 0.815779 0.490844 28 30 36
0.060717 0.815779 0.483584 27 28 31
0.060717 0.815779 0.490844 32 34 38
0.053457 0.823039 0.469064 27 30 39
0.053457 0.823039 0.476324 25 27 35
0.053457 0.830299 0.469064 25 30 37
0.060717 0.823039 0.469064 24 27 35
0.060717 0.823039 0.476324 22 24 31
0.053457 0.823039 0.483584 24 27 31
0.053457 0.823039 0.490844 25 28 33
0.060717 0.823039 0.483584 27 28 31
0.067977 0.815779 0.469064 26 27 33
0.067977 0.815779 0.476324 19 20 28
0.075237 0.808519 0.469064 25 27 30
0.075237 0.808519 0.476324 30 31 35
0.075237 0.815779 0.469064 20 22 29
0.075237 0.815779 0.476324 20 21 26
0.067977 0.808519 0.483584 25 27 31
0.067977 0.808519 0.490844 27 27 31
0.067977 0.815779 0.483584 27 28 33
0.067977 0.815779 0.490844 37 37 41
0.075237 0.808519 0.483584 24 26 30
0.075237 0.808519 0.490844 27 28 30
0.075237 0.815779 0.483584 24 25 29
0.067977 0.823039 0.469064 25 27 32
0.067977 0.823039 0.476324 31 33 40
0.024417 0.859339 0.425504 17 21 30
0.024417 0.859339 0.432764 16 19 26
0.031677 0.852079 0.432764 28 30 38
0.031677 0.859339 0.425504 16 19 28
0.031677 0.859339 0.432764 22 25 34
0.046197 0.844819 0.432764 20 25 34
0.046197 0.859339 0.418244 17 22 32
0.038937 0.852079 0.432764 14 18 28
0.038937 0.859339 0.425504 13 16 25
0.038937 0.859339 0.432764 17 20 30
0.046197 0.852079 0.425504 13 17 29
0.046197 0.852079 0.432764 13 17 28
0.046197 0.859339 0.425504 13 17 25
0.031677 0.881119 0.403724 29 27 24
0.031677 0.888379 0.396464 42 37 28
0.031677 0.888379 0.403724 49 44 32
0.046197 0.873859 0.403724 20 24 32
0.046197 0.888379 0.389204 12 13 20
0.038937 0.881119 0.396464 17 19 25
0.038937 0.881119 0.403724 9 10 15
0.038937 0.888379 0.396464 27 27 27
0.038937 0.888379 0.403724 23 22 22
0.046197 0.881119 0.396464 11 13 24
0.046197 0.881119 0.403724 7 11 23
0.046197 0.888379 0.396464 20 23 28
0.024417 0.866599 0.418244 11 11 20
0.024417 0.873859 0.418244 33 28 23
0.031677 0.866599 0.418244 10 10 21
0.031677 0.873859 0.410984 7 7 13
0.031677 0.873859 0.418244 6 5 14
0.024417 0.866599 0.425504 24 23 24
0.024417 0.866599 0.432764 23 24 28
0.024417 0.873859 0.425504 20 18 20
0.031677 0.866599 0.425504 9 10 20
0.024417 0.881119 0.410984 55 48 35
0.024417 0.881119 0.418244 47 39 25
0.024417 0.888379 0.410984 49 41 22
0.024417 0.888379 0.418244 86 78 57
0.031677 0.881119 0.410984 48 45 38
0.031677 0.888379 0.410984 38 33 20
0.024417 0.888379 0.425504 102 96 104
0.024417 0.888379 0.432764 103 99 104
0.031677 0.888379 0.432764 84 81 89
0.038937 0.866599 0.410984 17 20 30
0.038937 0.866599 0.418244 16 18 27
0.038937 0.873859 0.410984 6 7 15
0.046197 0.866599 0.410984 17 20 29
0.046197 0.866599 0.418244 20 24 33
0.046197 0.873859 0.410984 19 22 30
0.038937 0.866599 0.425504 8 11 21
0.038937 0.881119 0.410984 2 2 8
0.038937 0.888379 0.432764 93 90 95
0.067977 0.859339 0.403724 9 14 25
0.075237 0.852079 0.403724 28 34 42
0.075237 0.859339 0.396464 12 16 26
0.075237 0.859339 0.403724 15 20 30
0.053457 0.844819 0.432764 18 22 33
0.060717 0.837559 0.432764 18 23 32
0.060717 0.844819 0.425504 10 15 30
0.060717 0.844819 0.432764 11 16 28
0.053457 0.859339 0.418244 18 24 33
0.060717 0.852079 0.418244 11 16 30
0.060717 0.859339 0.410984 13 19 31
0.060717 0.859339 0.418244 15 21 32
0.053457 0.852079 0.425504 9 14 27
0.053457 0.852079 0.432764 9 14 29
0.053457 0.859339 0.425504 15 21 32
0.060717 0.852079 0.425504 6 10 24
0.060717 0.852079 0.432764 3 8 22
0.075237 0.844819 0.418244 17 21 33
0.067977 0.837559 0.432764 19 23 32
0.067977 0.844819 0.425504 10 14 26
0.067977 0.844819 0.432764 10 14 25
0.075237 0.837559 0.425504 17 20 30
0.075237 0.837559 0.432764 25 28 38
0.075237 0.844819 0.425504 16 19 32
0.067977 0.852079 0.410984 11 16 27
0.067977 0.852079 0.418244 13 18 30
0.067977 0.859339 0.410984 6 9 21
0.067977 0.859339 0.418244 9 15 29
0.075237 0.852079 0.410984 15 20 31
0.075237 0.852079 0.418244 15 20 31
0.075237 0.859339 0.410984 13 17 27
0.067977 0.852079 0.425504 13 18 31
0.053457 0.873859 0.396464 12 19 27
0.053457 0.873859 0.403724 13 19 28
0.060717 0.866599 0.403724 22 26 36
0.060717 0.873859 0.396464 21 26 34
0.060717 0.873859 0.403724 19 24 33
0.053457 0.881119 0.389204 9 12 22
0.053457 0.888379 0.381944 13 15 25
0.053457 0.888379 0.389204 13 15 24
0.060717 0.881119 0.389204 20 25 33
0.060717 0.888379 0.381944 23 26 33
0.060717 0.888379 0.389204 17 21 29
0.053457 0.881119 0.396464 6 12 22
0.060717 0.881119 0.396464 16 20 29
0.067977 0.873859 0.389204 27 32 40
0.075237 0.866599 0.389204 7 8 17
0.075237 0.873859 0.381944 5 7 14
0.075237 0.873859 0.389204 13 15 23
0.067977 0.866599 0.396464 28 33 43
0.067977 0.866599 0.403724 20 25 35
0.067977 0.873859 0.396464 29 34 43
0.075237 0.866599 0.396464 19 23 33
0.075237 0.866599 0.403724 11 16 26
0.075237 0.873859 0.396464 14 17 26
0.067977 0.881119 0.381944 42 47 55
0.067977 0.881119 0.389204 17 22 31
0.067977 0.888379 0.381944 34 37 45
0.075237 0.881119 0.381944 52 54 61
0.075237 0.888379 0.381944 71 74 80
0.053457 0.866599 0.410984 7 11 22
0.053457 0.866599 0.418244 19 24 33
0.053457 0.873859 0.410984 12 17 26
0.060717 0.866599 0.410984 5 10 23
0.067977 0.866599 0.410984 16 21 31
0.031677 0.844819 0.447284 28 32 36
0.024417 0.844819 0.454544 24 27 33
0.024417 0.844819 0.461804 21 23 28
0.031677 0.837559 0.461804 22 27 32
0.031677 0.844819 0.454544 30 32 38
0.031677 0.844819 0.461804 16 20 25
0.024417 0.852079 0.440024 22 25 34
0.024417 0.852079 0.447284 28 28 34
0.024417 0.859339 0.440024 21 23 31
0.031677 0.852079 0.440024 32 33 40
0.031677 0.852079 0.447284 27 31 36
0.024417 0.852079 0.454544 25 26 32
0.038937 0.844819 0.440024 17 21 29
0.038937 0.844819 0.447284 30 32 37
0.046197 0.837559 0.447284 13 18 28
0.046197 0.844819 0.440024 14 19 29
0.046197 0.844819 0.447284 15 19 28
0.038937 0.837559 0.454544 23 27 34
0.038937 0.837559 0.461804 26 30 36
0.038937 0.844819 0.454544 27 30 36
0.038937 0.844819 0.461804 23 27 33
0.046197 0.837559 0.454544 19 23 31
0.046197 0.837559 0.461804 23 26 33
0.046197 0.844819 0.454544 18 22 29
0.038937 0.852079 0.440024 24 27 34
0.038937 0.852079 0.447284 33 36 40
0.046197 0.852079 0.440024 17 21 29
0.024417 0.837559 0.469064 25 28 37
0.024417 0.837559 0.476324 20 22 29
0.024417 0.844819 0.469064 27 27 32
0.031677 0.837559 0.469064 19 21 28
0.031677 0.837559 0.476324 17 19 26
0.024417 0.837559 0.483584 15 17 22
0.024417 0.859339 0.476324 92 90 102
0.024417 0.859339 0.483584 98 96 107
0.024417 0.859339 0.490844 95 94 104
0.031677 0.859339 0.483584 101 99 109
0.031677 0.859339 0.490844 92 91 101
0.038937 0.837559 0.469064 23 26 32
0.038937 0.859339 0.490844 84 83 91
0.024417 0.873859 0.447284 91 88 94
0.024417 0.873859 0.454544 89 87 96
0.024417 0.873859 0.461804 99 97 109
0.031677 0.873859 0.461804 113 110 118
0.024417 0.881119 0.440024 123 119 122
0.024417 0.881119 0.447284 128 125 128
0.024417 0.888379 0.440024 118 114 119
0.031677 0.881119 0.447284 129 128 129
0.031677 0.888379 0.440024 95 92 97
0.031677 0.888379 0.447284 111 109 113
0.024417 0.881119 0.454544 108 104 108
0.031677 0.881119 0.454544 120 117 119
0.031677 0.881119 0.461804 112 109 115
0.031677 0.888379 0.454544 119 116 119
0.038937 0.888379 0.440024 97 94 99
0.038937 0.888379 0.447284 99 97 102
0.046197 0.888379 0.440024 107 105 109
0.046197 0.888379 0.447284 112 110 114
0.038937 0.881119 0.454544 99 97 103
0.038937 0.881119 0.461804 102 100 107
0.038937 0.888379 0.454544 99 97 102
0.038937 0.888379 0.461804 113 110 116
0.046197 0.881119 0.461804 101 99 108
0.046197 0.888379 0.454544 101 98 104
0.046197 0.888379 0.461804 105 103 109
0.024417 0.866599 0.469064 100 97 108
0.024417 0.866599 0.476324 106 104 114
0.024417 0.873859 0.469064 106 104 114
0.031677 0.866599 0.476324 110 108 117
0.031677 0.873859 0.469064 108 106 116
0.031677 0.873859 0.476324 111 110 120
0.031677 0.866599 0.483584 105 104 113
0.038937 0.866599 0.476324 115 114 123
0.038937 0.873859 0.469064 100 98 105
0.038937 0.873859 0.476324 106 105 115
0.046197 0.873859 0.476324 105 104 112
0.038937 0.866599 0.483584 82 81 90
0.038937 0.866599 0.490844 69 69 75
0.038937 0.873859 0.483584 98 97 106
0.046197 0.866599 0.483584 100 100 109
0.046197 0.866599 0.490844 91 91 101
0.046197 0.873859 0.483584 100 99 108
0.046197 0.873859 0.490844 82 82 93
0.038937 0.881119 0.469064 100 97 104
0.046197 0.881119 0.469064 98 97 103
0.046197 0.881119 0.476324 94 92 99
0.046197 0.888379 0.469064 109 109 117
0.053457 0.837559 0.440024 22 27 36
0.053457 0.837559 0.447284 20 25 33
0.053457 0.844819 0.440024 19 24 34
0.053457 0.844819 0.447284 16 21 31
0.060717 0.837559 0.440024 23 28 37
0.060717 0.837559 0.447284 20 26 36
0.060717 0.844819 0.440024 17 22 31
0.053457 0.837559 0.454544 24 27 35
0.067977 0.837559 0.440024 23 28 37
0.053457 0.888379 0.447284 120 117 118
0.053457 0.888379 0.454544 81 78 83
0.053457 0.888379 0.461804 43 42 50
0.060717 0.888379 0.461804 57 56 62
0.067977 0.888379 0.461804 60 58 64
0.075237 0.888379 0.461804 87 80 81
0.053457 0.866599 0.490844 89 89 101
0.053457 0.873859 0.483584 85 85 94
0.053457 0.873859 0.490844 83 83 94
0.060717 0.873859 0.483584 58 57 67
0.060717 0.873859 0.490844 76 76 87
0.053457 0.881119 0.469064 86 85 93
0.053457 0.881119 0.476324 92 90 98
0.053457 0.888379 0.469064 73 72 81
0.060717 0.881119 0.476324 93 91 100
0.060717 0.888379 0.469064 111 112 116
0.053457 0.881119 0.483584 86 85 95
0.060717 0.881119 0.483584 63 62 74
0.067977 0.873859 0.483584 39 39 51
0.067977 0.873859 0.490844 33 37 49
0.075237 0.873859 0.490844 10 15 26
0.067977 0.881119 0.476324 57 54 60
0.067977 0.888379 0.469064 63 61 66
0.067977 0.888379 0.476324 61 58 64
0.075237 0.881119 0.476324 59 55 60
0.075237 0.888379 0.469064 50 45 52
0.075237 0.888379 0.476324 54 49 56
0.067977 0.881119 0.483584 50 48 55
0.075237 0.881119 0.483584 63 62 70
0.075237 0.881119 0.490844 31 36 48
0.067977 0.895639 0.273044 108 104 108
0.075237 0.895639 0.265784 20 38 56
0.075237 0.895639 0.273044 35 47 62
0.075237 0.902899 0.265784 16 37 57
0.075237 0.902899 0.273044 56 63 72
0.067977 0.895639 0.280304 79 76 80
0.067977 0.895639 0.287564 31 32 40
0.067977 0.902899 0.280304 114 111 111
0.067977 0.902899 0.287564 106 100 99
0.075237 0.902899 0.280304 84 83 85
0.067977 0.910159 0.280304 61 69 76
0.067977 0.910159 0.287564 65 68 73
0.075237 0.910159 0.280304 39 48 57
0.075237 0.910159 0.287564 36 44 52
0.075237 0.917419 0.280304 25 35 46
0.075237 0.917419 0.287564 43 53 63
0.067977 0.895639 0.294824 32 34 43
0.067977 0.895639 0.302084 18 21 32
0.067977 0.902899 0.294824 63 60 63
0.067977 0.902899 0.302084 30 31 38
0.067977 0.895639 0.309344 27 30 41
0.067977 0.895639 0.316604 32 37 47
0.067977 0.902899 0.309344 55 58 67
0.067977 0.902899 0.316604 18 24 33
0.067977 0.910159 0.294824 77 78 82
0.067977 0.910159 0.302084 55 57 61
0.067977 0.917419 0.294824 42 51 59
0.067977 0.917419 0.302084 63 75 86
0.075237 0.917419 0.294824 57 67 76
0.075237 0.917419 0.302084 56 70 79
0.067977 0.910159 0.309344 36 41 50
0.067977 0.910159 0.316604 33 39 48
0.067977 0.917419 0.309344 56 67 78
0.067977 0.917419 0.316604 51 62 72
0.067977 0.924679 0.302084 73 87 98
0.075237 0.924679 0.294824 59 76 86
0.075237 0.924679 0.302084 57 73 84
0.067977 0.924679 0.309344 61 76 89
0.075237 0.924679 0.309344 59 75 86
0.075237 0.924679 0.316604 58 74 86
0.075237 0.931939 0.309344 73 88 100
0.075237 0.931939 0.316604 68 84 95
0.046197 0.910159 0.374684 95 84 55
0.046197 0.917419 0.374684 121 108 72
0.067977 0.895639 0.323864 67 72 80
0.067977 0.895639 0.331124 43 47 57
0.067977 0.902899 0.323864 42 48 57
0.067977 0.902899 0.331124 47 53 62
0.075237 0.895639 0.331124 20 25 33
0.067977 0.895639 0.338384 18 23 31
0.067977 0.902899 0.338384 34 40 49
0.075237 0.895639 0.338384 42 46 54
0.075237 0.895639 0.345644 28 30 37
0.075237 0.902899 0.338384 28 34 42
0.075237 0.902899 0.345644 27 33 43
0.067977 0.910159 0.323864 62 68 75
0.067977 0.910159 0.331124 65 71 80
0.067977 0.917419 0.323864 46 55 64
0.067977 0.917419 0.331124 51 57 63
0.075237 0.917419 0.323864 60 70 80
0.075237 0.917419 0.331124 84 90 96
0.067977 0.910159 0.338384 48 53 62
0.075237 0.910159 0.338384 33 40 47
0.075237 0.910159 0.345644 23 31 40
0.075237 0.917419 0.338384 44 52 59
0.075237 0.917419 0.345644 26 35 45
0.053457 0.895639 0.374684 20 23 32
0.053457 0.902899 0.374684 21 22 27
0.060717 0.895639 0.374684 16 20 29
0.060717 0.902899 0.367424 8 10 20
0.060717 0.902899 0.374684 7 9 19
0.053457 0.910159 0.367424 18 13 15
0.053457 0.910159 0.374684 41 32 24
0.053457 0.917419 0.367424 26 19 13
0.053457 0.917419 0.374684 94 83 55
0.060717 0.910159 0.367424 15 14 20
0.060717 0.917419 0.367424 20 16 16
0.075237 0.895639 0.352904 7 8 16
0.075237 0.895639 0.360164 26 30 40
0.075237 0.902899 0.352904 22 25 35
0.075237 0.902899 0.360164 17 21 30
0.067977 0.895639 0.367424 8 9 19
0.067977 0.895639 0.374684 16 20 29
0.067977 0.902899 0.367424 5 6 17
0.075237 0.895639 0.367424 22 27 36
0.075237 0.902899 0.367424 6 9 20
0.067977 0.910159 0.360164 2 3 14
0.067977 0.917419 0.360164 4 7 18
0.075237 0.910159 0.352904 10 15 26
0.075237 0.910159 0.360164 8 12 23
0.075237 0.917419 0.352904 18 26 37
0.075237 0.917419 0.360164 12 19 30
0.067977 0.910159 0.367424 1 1 12
0.067977 0.917419 0.367424 3 4 13
0.075237 0.910159 0.367424 0 0 9
0.075237 0.924679 0.323864 56 69 80
0.075237 0.924679 0.331124 64 76 86
0.075237 0.931939 0.323864 58 74 85
0.075237 0.924679 0.338384 79 89 97
0.075237 0.924679 0.345644 58 68 77
0.053457 0.924679 0.367424 69 61 41
0.053457 0.924679 0.374684 127 116 83
0.060717 0.924679 0.367424 86 80 60
0.060717 0.931939 0.367424 131 123 91
0.060717 0.931939 0.374684 147 140 116
0.067977 0.924679 0.360164 10 11 18
0.067977 0.931939 0.360164 36 31 26
0.075237 0.924679 0.360164 6 14 25
0.075237 0.931939 0.360164 52 50 40
0.067977 0.924679 0.367424 12 12 12
0.067977 0.931939 0.367424 77 69 53
0.067977 0.931939 0.374684 142 135 119
0.075237 0.931939 0.367424 121 110 80
0.067977 0.939199 0.367424 135 127 100
0.067977 0.939199 0.374684 165 158 132
0.075237 0.939199 0.367424 138 127 93
0.075237 0.939199 0.374684 180 170 135
0.075237 0.946459 0.367424 154 145 114
0.075237 0.946459 0.374684 144 139 129
0.031677 0.902899 0.389204 84 72 43
0.031677 0.895639 0.396464 58 49 34
0.031677 0.895639 0.403724 44 36 21
0.031677 0.902899 0.396464 94 86 64
0.031677 0.902899 0.403724 110 105 97
0.031677 0.910159 0.396464 103 97 82
0.038937 0.895639 0.389204 31 27 21
0.038937 0.902899 0.381944 69 61 40
0.038937 0.902899 0.389204 79 68 40
0.046197 0.895639 0.381944 13 13 16
0.046197 0.895639 0.389204 12 12 13
0.046197 0.902899 0.381944 52 46 35
0.038937 0.895639 0.396464 43 38 26
0.038937 0.902899 0.403724 90 87 90
0.038937 0.910159 0.381944 81 69 37
0.038937 0.910159 0.389204 112 107 90
0.038937 0.917419 0.389204 123 121 121
0.046197 0.910159 0.381944 97 85 53
0.046197 0.917419 0.381944 116 110 91
0.046197 0.917419 0.389204 108 107 109
0.038937 0.910159 0.396464 100 97 97
0.038937 0.910159 0.403724 80 78 84
0.038937 0.917419 0.396464 96 93 100
0.046197 0.910159 0.403724 75 74 83
0.046197 0.917419 0.396464 95 95 105
0.046197 0.917419 0.403724 80 80 90
0.024417 0.895639 0.410984 76 69 48
0.024417 0.895639 0.418244 108 102 101
0.031677 0.895639 0.410984 95 92 100
0.031677 0.895639 0.418244 95 92 100
0.031677 0.902899 0.410984 101 98 103
0.031677 0.902899 0.418244 113 110 117
0.024417 0.895639 0.425504 87 83 91
0.031677 0.895639 0.425504 94 92 99
0.031677 0.895639 0.432764 89 87 94
0.038937 0.895639 0.418244 105 102 108
0.038937 0.902899 0.410984 89 86 96
0.038937 0.902899 0.418244 96 94 102
0.046197 0.902899 0.418244 100 97 106
0.038937 0.895639 0.425504 102 99 105
0.038937 0.895639 0.432764 91 87 93
0.038937 0.902899 0.425504 105 103 108
0.046197 0.895639 0.425504 96 94 98
0.046197 0.895639 0.432764 102 100 104
0.046197 0.902899 0.425504 97 96 103
0.046197 0.902899 0.432764 92 90 95
0.038937 0.910159 0.410984 89 86 96
0.046197 0.910159 0.410984 96 94 101
0.046197 0.924679 0.381944 119 117 110
0.046197 0.924679 0.389204 99 98 106
0.053457 0.895639 0.381944 8 9 17
0.053457 0.902899 0.381944 21 23 30
0.060717 0.895639 0.381944 17 20 26
0.053457 0.917419 0.396464 84 82 92
0.053457 0.917419 0.403724 84 82 93
0.060717 0.917419 0.403724 107 107 116
0.053457 0.902899 0.418244 99 97 104
0.053457 0.895639 0.432764 136 133 134
0.053457 0.902899 0.425504 103 101 105
0.053457 0.902899 0.432764 116 113 115
0.060717 0.895639 0.432764 135 132 134
0.060717 0.902899 0.425504 93 91 94
0.060717 0.902899 0.432764 131 128 130
0.053457 0.910159 0.410984 102 101 108
0.053457 0.910159 0.418244 103 101 107
0.053457 0.917419 0.410984 95 93 101
0.060717 0.910159 0.418244 109 107 115
0.060717 0.917419 0.410984 101 99 109
0.060717 0.917419 0.418244 92 90 98
0.060717 0.910159 0.425504 80 78 82
0.067977 0.902899 0.425504 77 76 78
0.067977 0.902899 0.432764 129 127 128
0.075237 0.902899 0.432764 147 144 146
0.067977 0.910159 0.418244 110 107 115
0.067977 0.917419 0.410984 106 105 116
0.067977 0.917419 0.418244 100 98 105
0.075237 0.917419 0.410984 108 107 117
0.075237 0.917419 0.418244 104 102 109
0.067977 0.910159 0.425504 87 85 89
0.067977 0.910159 0.432764 85 83 86
0.075237 0.910159 0.425504 90 87 91
0.075237 0.910159 0.432764 99 96 98
0.053457 0.924679 0.381944 123 120 111
0.053457 0.924679 0.389204 92 92 101
0.060717 0.924679 0.381944 96 95 95
0.060717 0.924679 0.389204 93 92 102
0.060717 0.931939 0.381944 114 111 108
0.060717 0.931939 0.389204 100 101 113
0.053457 0.924679 0.396464 83 81 91
0.060717 0.924679 0.396464 90 88 93
0.060717 0.924679 0.403724 98 97 105
0.067977 0.931939 0.381944 96 96 109
0.067977 0.931939 0.389204 87 87 99
0.075237 0.931939 0.389204 92 92 105
0.067977 0.924679 0.396464 86 86 95
0.067977 0.924679 0.403724 104 103 110
0.067977 0.931939 0.396464 92 92 104
0.075237 0.924679 0.403724 60 60 71
0.075237 0.931939 0.396464 96 95 106
0.075237 0.931939 0.403724 99 98 109
0.067977 0.939199 0.381944 139 135 122
0.075237 0.939199 0.381944 103 100 107
0.075237 0.939199 0.389204 92 92 106
0.067977 0.924679 0.410984 111 110 122
0.075237 0.924679 0.410984 109 108 119
0.038937 0.895639 0.440024 100 96 102
0.046197 0.895639 0.440024 120 116 120
0.046197 0.895639 0.447284 131 129 131
0.053457 0.895639 0.440024 147 144 145
0.053457 0.895639 0.447284 125 122 124
0.060717 0.895639 0.440024 152 148 149
0.060717 0.895639 0.447284 135 131 128
0.060717 0.902899 0.440024 141 138 141
0.053457 0.895639 0.454544 83 81 82
0.060717 0.895639 0.454544 30 28 29
0.060717 0.895639 0.461804 62 61 65
0.067977 0.895639 0.440024 172 168 170
0.067977 0.895639 0.447284 141 137 134
0.067977 0.902899 0.440024 168 165 168
0.067977 0.902899 0.447284 160 157 159
0.075237 0.895639 0.447284 80 75 71
0.075237 0.902899 0.440024 136 134 136
0.075237 0.902899 0.447284 111 109 112
0.067977 0.895639 0.454544 90 87 86
0.067977 0.895639 0.461804 58 57 62
0.075237 0.895639 0.454544 134 129 122
0.075237 0.895639 0.461804 138 134 127
0.017157 0.830299 0.498104 37 34 31
0.017157 0.830299 0.505364 52 48 38
0.017157 0.823039 0.512624 51 48 37
0.017157 0.823039 0.519884 61 55 39
0.017157 0.830299 0.512624 66 60 43
0.017157 0.830299 0.519884 70 62 45
0.017157 0.823039 0.527144 82 74 52
0.017157 0.830299 0.527144 113 104 87
0.00989701 0.837559 0.498104 87 78 53
0.00989701 0.837559 0.505364 41 35 24
0.00989701 0.844819 0.498104 74 68 55
0.00989701 0.844819 0.505364 60 54 41
0.017157 0.837559 0.498104 76 67 47
0.017157 0.837559 0.505364 92 82 59
0.017157 0.844819 0.498104 141 139 139
0.017157 0.844819 0.505364 110 108 114
0.00989701 0.837559 0.512624 57 49 35
0.017157 0.837559 0.512624 89 84 76
0.017157 0.837559 0.519884 115 111 112
0.017157 0.844819 0.512624 103 102 108
0.017157 0.844819 0.519884 87 85 95
0.017157 0.852079 0.498104 100 99 108
0.017157 0.852079 0.505364 105 104 115
0.017157 0.837559 0.527144 117 113 111
0.031677 0.815779 0.512624 38 38 40
0.031677 0.815779 0.519884 33 33 36
0.024417 0.823039 0.505364 22 21 22
0.024417 0.830299 0.498104 14 14 19
0.024417 0.830299 0.505364 23 21 23
0.031677 0.823039 0.498104 14 16 21
0.031677 0.823039 0.505364 16 17 22
0.031677 0.830299 0.498104 11 13 18
0.024417 0.823039 0.512624 31 29 27
0.024417 0.823039 0.519884 44 40 32
0.024417 0.830299 0.512624 36 32 27
0.031677 0.823039 0.512624 21 22 25
0.031677 0.823039 0.519884 41 41 43
0.038937 0.815779 0.505364 40 41 44
0.046197 0.815779 0.505364 35 36 39
0.038937 0.808519 0.519884 37 37 40
0.038937 0.815779 0.512624 38 37 40
0.038937 0.815779 0.519884 27 27 32
0.046197 0.808519 0.519884 37 36 40
0.046197 0.815779 0.512624 40 39 41
0.046197 0.815779 0.519884 40 38 41
0.038937 0.823039 0.498104 32 32 36
0.038937 0.823039 0.505364 35 36 39
0.046197 0.823039 0.498104 26 27 32
0.024417 0.815779 0.527144 29 25 19
0.024417 0.815779 0.534404 45 39 29
0.031677 0.815779 0.527144 20 18 20
0.031677 0.815779 0.534404 28 26 24
0.031677 0.815779 0.541664 49 44 33
0.031677 0.815779 0.548924 70 61 42
0.024417 0.823039 0.527144 65 58 43
0.024417 0.823039 0.534404 82 72 49
0.024417 0.830299 0.527144 70 63 59
0.024417 0.830299 0.534404 90 85 83
0.031677 0.830299 0.534404 103 102 110
0.024417 0.823039 0.541664 104 93 65
0.024417 0.823039 0.548924 123 113 82
0.024417 0.830299 0.541664 119 116 110
0.031677 0.823039 0.548924 147 139 113
0.031677 0.830299 0.541664 105 104 109
0.031677 0.830299 0.548924 142 138 131
0.038937 0.815779 0.527144 24 26 29
0.038937 0.815779 0.534404 19 19 22
0.046197 0.808519 0.527144 34 35 37
0.046197 0.808519 0.534404 11 12 15
0.046197 0.815779 0.534404 13 14 16
0.038937 0.808519 0.541664 10 11 15
0.038937 0.808519 0.548924 23 22 26
0.038937 0.815779 0.541664 28 26 27
0.038937 0.815779 0.548924 29 27 27
0.046197 0.808519 0.541664 15 16 18
0.046197 0.808519 0.548924 14 14 19
0.038937 0.830299 0.541664 85 83 89
0.038937 0.830299 0.548924 108 106 109
0.046197 0.830299 0.548924 84 83 94
0.075237 0.801259 0.498104 43 44 45
0.075237 0.801259 0.505364 40 41 42
0.067977 0.801259 0.512624 43 44 47
0.067977 0.801259 0.519884 40 42 44
0.075237 0.801259 0.512624 33 33 34
0.075237 0.801259 0.519884 37 37 38
0.060717 0.801259 0.527144 36 37 37
0.060717 0.801259 0.534404 33 34 36
0.053457 0.801259 0.548924 29 30 33
0.060717 0.801259 0.541664 20 22 25
0.060717 0.801259 0.548924 27 29 32
0.067977 0.801259 0.527144 32 34 36
0.067977 0.801259 0.534404 34 36 37
0.075237 0.801259 0.527144 31 32 33
0.075237 0.801259 0.534404 29 31 32
0.067977 0.801259 0.541664 34 35 37
0.067977 0.801259 0.548924 24 28 31
0.075237 0.801259 0.541664 35 35 36
0.075237 0.801259 0.548924 34 34 35
0.053457 0.815779 0.498104 38 39 42
0.053457 0.815779 0.505364 36 37 41
0.060717 0.808519 0.505364 44 44 46
0.060717 0.815779 0.498104 29 32 34
0.060717 0.815779 0.505364 38 39 41
0.053457 0.808519 0.512624 32 34 37
0.053457 0.808519 0.519884 32 33 36
0.053457 0.815779 0.512624 36 37 41
0.060717 0.808519 0.512624 35 37 40
0.060717 0.808519 0.519884 37 38 40
0.053457 0.823039 0.498104 18 22 29
0.067977 0.808519 0.498104 35 35 37
0.067977 0.808519 0.505364 40 41 43
0.067977 0.815779 0.498104 37 38 39
0.075237 0.808519 0.498104 32 33 34
0.075237 0.808519 0.505364 34 35 36
0.067977 0.808519 0.512624 39 39 42
0.067977 0.808519 0.519884 42 43 46
0.075237 0.808519 0.512624 27 29 31
0.053457 0.808519 0.527144 31 33 34
0.053457 0.808519 0.534404 19 22 22
0.060717 0.808519 0.527144 36 37 38
0.060717 0.808519 0.534404 30 31 32
0.053457 0.808519 0.541664 17 18 20
0.053457 0.808519 0.548924 16 17 20
0.031677 0.815779 0.556184 83 75 47
0.031677 0.823039 0.556184 153 144 116
0.038937 0.808519 0.556184 22 19 17
0.038937 0.815779 0.556184 51 46 33
0.038937 0.815779 0.563444 92 86 62
0.046197 0.808519 0.556184 14 14 18
0.046197 0.808519 0.563444 32 29 24
0.046197 0.808519 0.570704 58 53 38
0.046197 0.808519 0.577964 84 77 53
0.046197 0.815779 0.570704 128 123 103
0.046197 0.815779 0.577964 108 102 82
0.038937 0.823039 0.556184 165 161 148
0.038937 0.823039 0.563444 160 156 143
0.038937 0.830299 0.556184 130 128 131
0.046197 0.823039 0.556184 84 84 95
0.046197 0.823039 0.563444 102 100 109
0.046197 0.830299 0.556184 79 78 89
0.046197 0.830299 0.563444 77 75 90
0.046197 0.823039 0.570704 120 117 120
0.053457 0.801259 0.556184 18 20 22
0.053457 0.801259 0.563444 19 21 24
0.060717 0.801259 0.556184 19 20 24
0.060717 0.801259 0.563444 15 16 19
0.053457 0.801259 0.570704 30 27 25
0.060717 0.801259 0.570704 21 22 22
0.060717 0.801259 0.577964 34 32 30
0.067977 0.801259 0.556184 26 26 27
0.067977 0.801259 0.563444 16 17 18
0.075237 0.801259 0.556184 26 27 26
0.075237 0.801259 0.563444 32 33 33
0.067977 0.801259 0.570704 23 22 23
0.067977 0.801259 0.577964 23 22 23
0.075237 0.801259 0.570704 35 35 35
0.075237 0.801259 0.577964 55 54 54
0.060717 0.801259 0.585224 53 47 34
0.067977 0.801259 0.585224 22 19 15
0.067977 0.801259 0.592484 56 51 37
0.075237 0.801259 0.585224 24 23 21
0.075237 0.801259 0.592484 32 28 22
0.075237 0.801259 0.599744 46 40 28
0.053457 0.808519 0.556184 17 18 22
0.053457 0.808519 0.563444 17 18 21
0.053457 0.808519 0.570704 28 25 21
0.053457 0.808519 0.577964 61 54 38
0.053457 0.815779 0.577964 123 118 103
0.060717 0.808519 0.577964 51 45 34
0.060717 0.815779 0.577964 108 104 104
0.053457 0.823039 0.563444 94 93 108
0.053457 0.830299 0.556184 73 71 83
0.053457 0.830299 0.563444 87 86 100
0.060717 0.830299 0.556184 88 87 97
0.060717 0.830299 0.563444 81 81 93
0.053457 0.823039 0.570704 87 86 99
0.053457 0.823039 0.577964 105 102 103
0.053457 0.830299 0.570704 93 92 106
0.060717 0.823039 0.570704 97 95 106
0.060717 0.823039 0.577964 98 96 107
0.060717 0.830299 0.570704 90 89 100
0.067977 0.830299 0.563444 83 83 96
0.075237 0.830299 0.563444 102 102 116
0.067977 0.823039 0.577964 93 93 105
0.067977 0.830299 0.570704 99 100 112
0.067977 0.830299 0.577964 97 96 110
0.075237 0.823039 0.577964 88 88 102
0.075237 0.830299 0.570704 98 97 111
0.075237 0.830299 0.577964 92 91 105
0.053457 0.808519 0.585224 107 98 79
0.053457 0.815779 0.585224 161 154 136
0.060717 0.808519 0.585224 83 77 57
0.060717 0.808519 0.592484 113 110 97
0.060717 0.815779 0.585224 136 129 118
0.060717 0.823039 0.585224 92 91 105
0.067977 0.808519 0.585224 37 31 20
0.067977 0.808519 0.592484 90 85 70
0.067977 0.815779 0.585224 115 112 114
0.067977 0.815779 0.592484 91 88 92
0.075237 0.815779 0.592484 70 66 73
0.067977 0.808519 0.599744 109 104 98
0.075237 0.808519 0.599744 94 89 78
0.075237 0.808519 0.607004 125 120 102
0.075237 0.815779 0.599744 70 67 73
0.067977 0.823039 0.585224 87 86 100
0.075237 0.823039 0.585224 87 87 101
0.075237 0.823039 0.592484 72 69 79
0.024417 0.844819 0.505364 77 75 85
0.024417 0.837559 0.519884 66 64 70
0.024417 0.844819 0.512624 78 77 86
0.024417 0.844819 0.519884 53 52 63
0.031677 0.844819 0.512624 83 83 89
0.031677 0.844819 0.519884 66 65 73
0.024417 0.852079 0.498104 102 103 111
0.024417 0.852079 0.505364 89 88 97
0.024417 0.859339 0.498104 96 94 105
0.031677 0.852079 0.498104 96 95 104
0.031677 0.852079 0.505364 93 91 101
0.031677 0.859339 0.498104 92 90 99
0.024417 0.852079 0.512624 76 75 82
0.031677 0.852079 0.512624 87 85 93
0.038937 0.844819 0.519884 82 80 88
0.038937 0.852079 0.505364 99 98 109
0.038937 0.859339 0.498104 91 90 99
0.038937 0.859339 0.505364 90 90 100
0.046197 0.859339 0.498104 60 59 68
0.046197 0.859339 0.505364 81 80 90
0.038937 0.852079 0.512624 94 93 102
0.038937 0.852079 0.519884 105 102 111
0.046197 0.852079 0.512624 85 85 92
0.046197 0.852079 0.519884 94 92 100
0.046197 0.859339 0.512624 97 97 106
0.024417 0.837559 0.527144 86 84 92
0.024417 0.837559 0.534404 96 95 106
0.024417 0.844819 0.527144 77 76 86
0.031677 0.837559 0.527144 98 97 108
0.031677 0.837559 0.534404 90 88 100
0.031677 0.844819 0.527144 90 89 98
0.031677 0.837559 0.541664 77 75 85
0.038937 0.837559 0.534404 99 99 108
0.038937 0.844819 0.527144 104 102 111
0.038937 0.844819 0.534404 107 106 115
0.046197 0.837559 0.534404 111 110 121
0.046197 0.844819 0.527144 96 96 105
0.046197 0.844819 0.534404 104 104 113
0.038937 0.837559 0.541664 87 86 96
0.038937 0.837559 0.548924 76 75 84
0.046197 0.837559 0.541664 64 63 74
0.046197 0.837559 0.548924 60 59 70
0.046197 0.844819 0.541664 92 91 100
0.046197 0.852079 0.527144 94 94 103
0.046197 0.866599 0.498104 100 101 111
0.046197 0.866599 0.505364 99 100 110
0.053457 0.859339 0.505364 64 62 73
0.053457 0.852079 0.512624 104 103 111
0.053457 0.852079 0.519884 85 86 95
0.053457 0.859339 0.512624 72 71 82
0.053457 0.859339 0.519884 63 63 73
0.060717 0.852079 0.519884 87 86 97
0.060717 0.859339 0.512624 80 81 91
0.060717 0.859339 0.519884 65 65 74
0.067977 0.859339 0.512624 68 72 83
0.067977 0.859339 0.519884 70 72 82
0.075237 0.859339 0.512624 58 65 79
0.075237 0.859339 0.519884 60 65 78
0.053457 0.844819 0.534404 100 101 109
0.060717 0.844819 0.534404 84 84 94
0.053457 0.837559 0.541664 84 84 91
0.053457 0.837559 0.548924 103 101 112
0.053457 0.844819 0.541664 80 80 89
0.060717 0.837559 0.548924 109 108 119
0.060717 0.844819 0.541664 89 89 99
0.060717 0.844819 0.548924 106 106 117
0.053457 0.852079 0.527144 88 89 98
0.053457 0.852079 0.534404 98 98 108
0.060717 0.852079 0.527144 89 90 100
0.060717 0.852079 0.534404 68 68 80
0.067977 0.837559 0.548924 104 104 113
0.067977 0.844819 0.541664 75 75 87
0.067977 0.844819 0.548924 99 99 110
0.075237 0.844819 0.541664 91 92 103
0.075237 0.844819 0.548924 89 89 100
0.067977 0.852079 0.527144 72 73 83
0.067977 0.852079 0.534404 74 74 85
0.067977 0.859339 0.527144 62 63 73
0.075237 0.852079 0.527144 71 72 81
0.075237 0.852079 0.534404 98 99 111
0.075237 0.859339 0.527144 61 62 72
0.075237 0.852079 0.541664 99 100 112
0.053457 0.866599 0.498104 98 99 111
0.053457 0.866599 0.505364 71 71 82
0.060717 0.866599 0.498104 101 103 115
0.060717 0.866599 0.505364 85 85 96
0.060717 0.866599 0.512624 102 103 114
0.067977 0.866599 0.498104 72 74 87
0.067977 0.866599 0.505364 66 70 83
0.067977 0.873859 0.498104 71 72 85
0.075237 0.866599 0.498104 61 64 75
0.075237 0.866599 0.505364 63 68 80
0.075237 0.873859 0.498104 34 39 49
0.067977 0.866599 0.512624 54 60 73
0.075237 0.866599 0.512624 52 60 77
0.053457 0.837559 0.556184 114 113 126
0.060717 0.837559 0.556184 92 91 103
0.067977 0.837559 0.556184 101 100 109
0.067977 0.837559 0.563444 102 102 115
0.075237 0.837559 0.556184 103 102 115
0.075237 0.837559 0.563444 102 102 115
0.075237 0.844819 0.556184 105 105 117
0.082497 0.641539 0.265784 35 70 118
0.082497 0.641539 0.273044 71 99 143
0.082497 0.641539 0.287564 18 51 96
0.082497 0.648799 0.265784 59 86 128
0.082497 0.648799 0.273044 79 103 144
0.089757 0.656059 0.265784 95 115 143
0.089757 0.656059 0.273044 82 103 136
0.082497 0.648799 0.280304 49 78 124
0.082497 0.648799 0.287564 41 73 120
0.082497 0.656059 0.280304 47 76 121
0.089757 0.656059 0.280304 43 72 113
0.089757 0.656059 0.287564 28 57 100
0.097017 0.656059 0.287564 89 112 153
0.082497 0.641539 0.294824 35 66 111
0.082497 0.641539 0.302084 21 55 103
0.082497 0.641539 0.309344 11 48 94
0.082497 0.641539 0.316604 32 65 110
0.082497 0.648799 0.294824 35 66 113
0.082497 0.648799 0.302084 20 52 97
0.089757 0.648799 0.302084 29 57 99
0.089757 0.656059 0.294824 42 70 113
0.089757 0.656059 0.302084 43 67 106
0.082497 0.648799 0.309344 21 54 99
0.082497 0.648799 0.316604 18 49 91
0.089757 0.648799 0.309344 39 67 107
0.089757 0.648799 0.316604 55 79 118
0.089757 0.656059 0.309344 37 59 97
0.089757 0.656059 0.316604 87 105 140
0.097017 0.656059 0.294824 32 58 98
0.097017 0.656059 0.302084 92 112 148
0.097017 0.656059 0.309344 40 58 91
0.097017 0.656059 0.316604 73 93 127
0.082497 0.627019 0.352904 45 71 112
0.082497 0.627019 0.360164 52 79 121
0.082497 0.619759 0.367424 28 60 104
0.082497 0.619759 0.374684 34 69 115
0.082497 0.627019 0.367424 38 67 111
0.082497 0.627019 0.374684 31 62 106
0.089757 0.627019 0.367424 39 68 110
0.089757 0.627019 0.374684 31 60 101
0.082497 0.634279 0.331124 53 85 130
0.082497 0.641539 0.323864 29 61 104
0.082497 0.641539 0.331124 38 70 113
0.082497 0.634279 0.338384 27 57 99
0.082497 0.634279 0.345644 48 75 116
0.082497 0.641539 0.338384 21 53 95
0.082497 0.641539 0.345644 31 61 102
0.089757 0.641539 0.338384 25 51 89
0.089757 0.641539 0.345644 26 56 98
0.082497 0.648799 0.323864 40 70 114
0.082497 0.648799 0.331124 18 46 89
0.089757 0.648799 0.323864 30 59 102
0.089757 0.648799 0.331124 16 47 89
0.089757 0.656059 0.323864 20 49 92
0.089757 0.656059 0.331124 19 49 90
0.089757 0.648799 0.338384 27 56 95
0.089757 0.648799 0.345644 45 69 106
0.097017 0.656059 0.323864 41 65 101
0.097017 0.656059 0.331124 34 59 94
0.097017 0.648799 0.345644 22 48 84
0.097017 0.656059 0.338384 73 94 128
0.097017 0.656059 0.345644 18 42 77
0.082497 0.634279 0.352904 52 79 120
0.082497 0.634279 0.360164 50 78 118
0.082497 0.641539 0.352904 33 65 112
0.089757 0.634279 0.360164 55 82 122
0.089757 0.641539 0.352904 29 58 99
0.089757 0.641539 0.360164 44 72 112
0.082497 0.634279 0.367424 62 89 131
0.089757 0.634279 0.367424 52 79 120
0.089757 0.634279 0.374684 37 64 104
0.089757 0.641539 0.367424 45 71 111
0.089757 0.641539 0.374684 38 64 102
0.089757 0.648799 0.352904 47 71 108
0.089757 0.648799 0.360164 33 59 97
0.097017 0.641539 0.367424 27 58 97
0.097017 0.641539 0.374684 37 63 100
0.097017 0.648799 0.352904 25 51 88
0.097017 0.648799 0.360164 24 50 88
0.097017 0.656059 0.352904 30 55 91
0.097017 0.656059 0.360164 28 54 90
0.104277 0.656059 0.360164 37 61 95
0.097017 0.648799 0.367424 23 49 87
0.097017 0.648799 0.374684 29 55 92
0.097017 0.656059 0.367424 25 51 87
0.097017 0.656059 0.374684 18 45 81
0.104277 0.656059 0.367424 13 38 77
0.104277 0.656059 0.374684 9 32 71
0.082497 0.597979 0.403724 85 105 135
0.082497 0.576199 0.432764 43 81 129
0.082497 0.583459 0.425504 59 89 133
0.082497 0.583459 0.432764 47 82 127
0.089757 0.583459 0.432764 30 65 110
0.082497 0.590719 0.410984 99 118 145
0.082497 0.590719 0.418244 108 127 154
0.082497 0.597979 0.410984 96 116 148
0.082497 0.597979 0.418244 73 96 133
0.089757 0.597979 0.418244 45 72 112
0.082497 0.590719 0.425504 44 71 108
0.089757 0.590719 0.425504 42 72 112
0.089757 0.590719 0.432764 24 58 101
0.089757 0.597979 0.425504 49 78 117
0.097017 0.590719 0.432764 20 53 93
0.097017 0.597979 0.432764 33 64 103
0.082497 0.554419 0.447284 33 65 109
0.082497 0.547159 0.454544 18 65 118
0.082497 0.547159 0.461804 23 66 115
0.082497 0.554419 0.454544 48 83 128
0.082497 0.554419 0.461804 45 83 131
0.089757 0.547159 0.461804 46 85 136
0.089757 0.554419 0.461804 50 88 137
0.082497 0.561679 0.440024 69 112 160
0.082497 0.561679 0.447284 43 81 127
0.082497 0.568939 0.440024 38 78 127
0.082497 0.568939 0.447284 40 78 127
0.089757 0.568939 0.447284 30 69 118
0.082497 0.561679 0.454544 25 67 115
0.089757 0.561679 0.454544 63 100 148
0.089757 0.561679 0.461804 57 92 137
0.089757 0.568939 0.454544 47 85 135
0.097017 0.561679 0.461804 38 74 119
0.097017 0.568939 0.454544 32 71 121
0.097017 0.568939 0.461804 38 73 120
0.104277 0.568939 0.461804 28 67 114
0.082497 0.547159 0.469064 26 67 117
0.089757 0.547159 0.469064 52 88 135
0.089757 0.547159 0.476324 12 51 98
0.089757 0.554419 0.469064 45 81 128
0.097017 0.547159 0.469064 47 84 132
0.097017 0.547159 0.476324 28 71 122
0.097017 0.554419 0.469064 40 78 127
0.097017 0.554419 0.476324 17 61 112
0.104277 0.547159 0.476324 18 62 110
0.104277 0.554419 0.476324 24 64 112
0.104277 0.547159 0.483584 44 82 128
0.104277 0.547159 0.490844 14 67 124
0.104277 0.554419 0.483584 27 70 117
0.097017 0.561679 0.469064 45 81 127
0.104277 0.561679 0.469064 32 70 116
0.104277 0.561679 0.476324 59 93 140
0.104277 0.568939 0.469064 23 63 111
0.082497 0.576199 0.440024 34 74 123
0.082497 0.583459 0.440024 36 72 118
0.089757 0.576199 0.440024 45 81 128
0.089757 0.576199 0.447284 41 79 127
0.089757 0.583459 0.440024 44 79 123
0.089757 0.590719 0.440024 38 71 113
0.097017 0.576199 0.447284 36 77 127
0.097017 0.583459 0.440024 42 77 122
0.097017 0.583459 0.447284 26 65 112
0.104277 0.583459 0.447284 19 58 107
0.097017 0.576199 0.454544 25 64 115
0.097017 0.576199 0.461804 26 63 112
0.104277 0.576199 0.454544 30 68 118
0.104277 0.576199 0.461804 29 67 116
0.104277 0.583459 0.454544 28 66 115
0.104277 0.583459 0.461804 12 50 101
0.097017 0.590719 0.440024 30 62 103
0.097017 0.590719 0.447284 36 70 117
0.097017 0.597979 0.440024 38 68 108
0.104277 0.590719 0.440024 56 86 127
0.104277 0.590719 0.447284 60 90 131
0.104277 0.597979 0.440024 53 80 115
0.104277 0.597979 0.447284 67 93 132
0.104277 0.590719 0.454544 60 87 125
0.104277 0.576199 0.469064 64 104 154
0.111537 0.547159 0.483584 47 85 134
0.111537 0.547159 0.490844 25 60 109
0.111537 0.554419 0.483584 17 57 106
0.111537 0.554419 0.490844 18 55 103
0.118797 0.547159 0.490844 47 75 117
0.118797 0.554419 0.490844 51 81 121
0.111537 0.561679 0.476324 50 84 129
0.111537 0.568939 0.469064 22 60 109
0.111537 0.568939 0.476324 43 77 122
0.118797 0.568939 0.476324 74 103 146
0.111537 0.561679 0.483584 28 64 109
0.118797 0.561679 0.483584 51 83 125
0.118797 0.561679 0.490844 58 89 129
0.118797 0.568939 0.483584 75 103 144
0.126057 0.561679 0.490844 76 103 142
0.126057 0.568939 0.483584 60 90 133
0.126057 0.568939 0.490844 51 81 123
0.133317 0.568939 0.490844 15 50 96
0.111537 0.576199 0.461804 35 73 123
0.111537 0.583459 0.454544 34 69 117
0.111537 0.583459 0.461804 36 72 119
0.118797 0.583459 0.461804 37 71 115
0.111537 0.597979 0.447284 45 75 114
0.111537 0.590719 0.454544 58 86 125
0.111537 0.590719 0.461804 40 72 115
0.111537 0.597979 0.454544 39 71 111
0.118797 0.590719 0.461804 33 66 107
0.118797 0.597979 0.454544 21 56 100
0.118797 0.597979 0.461804 31 63 106
0.126057 0.597979 0.461804 32 64 108
0.111537 0.576199 0.469064 36 74 123
0.111537 0.583459 0.469064 21 57 102
0.118797 0.576199 0.469064 43 78 125
0.118797 0.576199 0.476324 27 62 109
0.118797 0.583459 0.469064 34 69 114
0.118797 0.583459 0.476324 35 69 115
0.118797 0.590719 0.469064 35 69 112
0.126057 0.576199 0.476324 39 73 118
0.126057 0.583459 0.469064 22 62 105
0.126057 0.583459 0.476324 33 68 112
0.133317 0.583459 0.476324 35 70 114
0.126057 0.576199 0.483584 44 76 121
0.126057 0.583459 0.483584 34 69 113
0.133317 0.576199 0.483584 44 77 122
0.133317 0.576199 0.490844 38 72 118
0.133317 0.583459 0.483584 32 67 112
0.126057 0.590719 0.469064 24 69 114
0.126057 0.597979 0.469064 31 64 107
0.133317 0.590719 0.476324 19 53 97
0.133317 0.597979 0.469064 42 74 120
0.133317 0.597979 0.476324 39 69 116
0.133317 0.590719 0.483584 8 46 92
0.082497 0.605239 0.389204 17 52 100
0.082497 0.612499 0.381944 22 57 101
0.082497 0.612499 0.389204 40 74 118
0.082497 0.605239 0.396464 29 64 108
0.082497 0.605239 0.403724 29 62 104
0.082497 0.612499 0.396464 43 74 115
0.082497 0.612499 0.403724 58 89 132
0.089757 0.605239 0.403724 18 52 96
0.089757 0.612499 0.396464 67 96 136
0.089757 0.612499 0.403724 27 62 103
0.082497 0.619759 0.381944 17 52 96
0.082497 0.619759 0.389204 35 69 113
0.082497 0.627019 0.381944 18 55 99
0.089757 0.619759 0.381944 40 75 120
0.089757 0.619759 0.389204 35 67 110
0.089757 0.627019 0.381944 33 64 105
0.089757 0.627019 0.389204 30 61 105
0.082497 0.619759 0.396464 20 55 98
0.089757 0.619759 0.396464 21 54 94
0.089757 0.619759 0.403724 32 65 106
0.089757 0.627019 0.396464 31 64 107
0.097017 0.627019 0.389204 33 65 107
0.097017 0.619759 0.403724 38 67 107
0.097017 0.627019 0.396464 25 54 94
0.097017 0.627019 0.403724 53 78 114
0.082497 0.605239 0.410984 50 76 115
0.089757 0.605239 0.410984 26 56 96
0.089757 0.605239 0.418244 32 62 103
0.089757 0.612499 0.410984 24 58 98
0.089757 0.612499 0.418244 23 56 96
0.089757 0.605239 0.425504 28 59 100
0.097017 0.605239 0.418244 19 51 90
0.097017 0.612499 0.410984 34 66 107
0.097017 0.612499 0.418244 31 61 100
0.097017 0.605239 0.425504 43 71 108
0.097017 0.605239 0.432764 52 78 115
0.097017 0.612499 0.425504 36 63 101
0.104277 0.605239 0.432764 62 86 121
0.104277 0.612499 0.425504 48 74 111
0.104277 0.612499 0.432764 52 76 109
0.097017 0.619759 0.410984 43 70 108
0.097017 0.619759 0.418244 30 59 98
0.097017 0.627019 0.410984 70 93 126
0.104277 0.619759 0.418244 50 77 115
0.104277 0.627019 0.410984 30 56 92
0.104277 0.627019 0.418244 27 53 89
0.104277 0.619759 0.425504 29 56 92
0.104277 0.619759 0.432764 33 58 92
