ply
format ascii 1.0
element vertex 1302
property double x
property double y
property double z
property uchar red
property uchar green
property uchar blue
end_header
0.493081 0.084506 0.691078 135 123 65
0.490208 0.08384 0.695924 141 131 72
0.488252 0.082923 0.688048 135 123 63
0.494626 0.085088 0.691644 128 116 56
0.499138 0.086338 0.690487 117 105 53
0.497748 0.086755 0.702226 131 116 59
0.488571 0.084005 0.702812 128 109 50
0.507102 0.08334 0.712929 14 13 11
0.492365 0.08459 0.697197 144 132 72
0.497939 0.086755 0.709586 134 123 67
0.498231 0.086755 0.711068 133 123 70
0.500984 0.087087 0.688492 98 84 37
0.489798 0.083756 0.692162 169 158 128
0.508137 0.081676 0.690514 2 0 3
0.500487 0.087087 0.696506 113 101 49
0.498006 0.08692 0.70345 125 112 59
0.511809 0.081676 0.69446 2 0 1
0.514034 0.082341 0.691077 74 68 56
0.51205 0.081841 0.702053 20 19 17
0.511068 0.081091 0.698839 0 0 0
0.513191 0.081091 0.70202 6 2 3
0.510477 0.083756 0.692595 2 2 2
0.509553 0.083256 0.694618 0 2 1
0.513674 0.08384 0.688649 23 22 17
0.512975 0.08334 0.699672 5 1 0
0.510152 0.082008 0.706532 3 3 3
0.511576 0.081343 0.706307 10 6 5
0.509079 0.081259 0.707392 15 14 10
0.51315 0.082092 0.709482 15 14 12
0.510444 0.081259 0.708425 3 2 0
0.513141 0.08101 0.704126 21 19 20
0.509236 0.080842 0.706291 6 6 0
0.509837 0.081676 0.714943 23 24 19
0.512376 0.082174 0.714227 15 15 13
0.509862 0.082842 0.710023 26 25 23
0.516621 0.082923 0.706274 24 25 20
0.512026 0.083256 0.718116 0 0 2
0.512934 0.084005 0.718374 15 14 9
0.509687 0.083424 0.712662 9 8 4
0.51126 0.083175 0.711538 14 13 11
0.514599 0.08259 0.717008 9 9 1
0.513991 0.083175 0.712995 9 8 4
0.514122 0.086671 0.690599 30 30 22
0.514805 0.084839 0.695294 22 21 16
0.519985 0.084839 0.688208 54 52 53
0.5202 0.085921 0.694878 45 44 42
0.51845 0.08459 0.691471 133 126 84
0.521332 0.085588 0.697459 50 46 47
0.524729 0.086671 0.690532 88 84 59
0.525112 0.087169 0.692039 88 82 56
0.524695 0.087753 0.689966 77 75 54
0.521623 0.087087 0.69651 45 44 40
0.519875 0.087253 0.696027 38 38 30
0.526286 0.087504 0.701613 118 114 67
0.51817 0.084338 0.70475 94 90 55
0.514989 0.084338 0.706391 10 10 0
0.516855 0.084923 0.712795 27 28 23
0.520151 0.085004 0.705083 108 102 66
0.519327 0.084755 0.704276 106 97 66
0.524122 0.085837 0.705751 115 109 61
0.519819 0.085004 0.712562 95 89 57
0.522023 0.085921 0.717723 106 101 59
0.520632 0.085339 0.713461 111 107 69
0.524595 0.086755 0.710738 108 106 67
0.52636 0.087669 0.716092 127 120 74
0.526527 0.087669 0.712795 133 129 82
0.525361 0.087169 0.712004 105 100 62
0.524371 0.086755 0.712478 98 91 62
0.489034 0.083924 0.72811 146 134 74
0.48899 0.083924 0.723208 129 113 77
0.488066 0.08384 0.731417 163 151 125
0.507793 0.081759 0.720305 24 25 20
0.506694 0.081175 0.728023 129 118 54
0.502198 0.081508 0.720039 25 24 20
0.488651 0.084089 0.737468 127 115 57
0.505209 0.080926 0.73641 130 121 62
0.507407 0.081841 0.745468 128 117 61
0.506849 0.081759 0.749556 149 140 73
0.508148 0.082174 0.749731 149 141 69
0.491937 0.085172 0.731432 128 118 56
0.491848 0.084755 0.720809 133 123 64
0.496924 0.086587 0.722309 171 160 132
0.49361 0.085588 0.728027 78 72 24
0.490458 0.084506 0.73055 144 134 73
0.494426 0.085753 0.71967 165 154 124
0.492603 0.085088 0.723623 100 88 38
0.495658 0.086086 0.72284 131 121 62
0.497973 0.086836 0.721492 124 114 55
0.492211 0.084839 0.719152 136 125 71
0.49371 0.085504 0.721327 175 163 137
0.496299 0.086587 0.747775 115 104 50
0.493577 0.085837 0.749767 159 148 120
0.495142 0.086503 0.739551 170 158 132
0.497111 0.087087 0.742459 76 71 42
0.490741 0.08459 0.749898 144 129 70
0.493235 0.085504 0.747534 125 113 61
0.495292 0.086836 0.735888 167 156 128
0.498847 0.087837 0.734987 66 59 15
0.510611 0.082257 0.724293 119 110 51
0.508463 0.082257 0.721379 22 23 17
0.508365 0.081592 0.733646 95 87 51
0.510686 0.082341 0.731936 108 101 57
0.510653 0.082257 0.730612 109 102 47
0.515806 0.08384 0.725683 121 116 61
0.512051 0.082674 0.732061 106 101 59
0.512834 0.082923 0.72779 139 130 75
0.516322 0.083924 0.731803 102 97 59
0.509514 0.082257 0.740739 119 110 53
0.514909 0.083756 0.736718 112 107 52
0.509114 0.082008 0.736152 144 134 72
0.513493 0.083424 0.740506 130 121 64
0.518146 0.084422 0.722395 119 114 72
0.521981 0.085837 0.719438 120 116 68
0.519403 0.084923 0.729272 118 111 69
0.52303 0.086254 0.720346 101 99 58
0.523297 0.086422 0.724442 108 103 61
0.526177 0.087585 0.722652 99 93 61
0.524612 0.087004 0.724942 113 110 69
0.523338 0.086338 0.729346 101 96 56
0.516857 0.08459 0.742779 126 117 62
0.51679 0.084422 0.739024 105 101 56
0.524295 0.087169 0.746742 121 114 68
0.52213 0.086254 0.737709 94 89 49
0.522663 0.086422 0.73601 117 114 61
0.519558 0.085255 0.740565 119 112 68
0.524511 0.087087 0.735561 130 123 69
0.520765 0.085837 0.745793 111 104 62
0.526226 0.087753 0.737617 128 121 77
0.520748 0.085672 0.734887 120 118 70
0.533566 0.085921 0.688318 106 100 78
0.535473 0.085504 0.694213 137 135 97
0.536206 0.087253 0.691487 101 94 50
0.536639 0.087169 0.693876 125 122 71
0.535532 0.087336 0.688739 97 90 48
0.537203 0.087004 0.697807 101 95 63
0.537779 0.086755 0.702938 164 161 116
0.538187 0.08692 0.710131 156 153 108
0.537621 0.086587 0.704278 168 164 127
0.538421 0.08742 0.705391 147 144 103
0.534862 0.086338 0.705327 135 127 88
0.539361 0.087504 0.718465 146 142 104
0.539211 0.087585 0.712129 161 158 113
0.539511 0.087669 0.714177 172 165 119
0.539727 0.087753 0.723419 169 165 128
0.538462 0.087169 0.719248 155 152 117
0.536602 0.087504 0.722935 126 117 78
0.50751 0.093165 0.512962 17 17 19
0.49647 0.088835 0.514951 39 39 31
0.490796 0.088919 0.515559 24 24 24
0.488325 0.088752 0.515934 26 25 21
0.508132 0.087837 0.51178 30 28 33
0.52624 0.093663 0.509665 28 24 25
0.511578 0.093165 0.512225 20 20 20
0.518037 0.089918 0.511404 29 28 23
0.525999 0.090083 0.509603 11 11 13
0.509153 0.091084 0.512871 14 13 18
0.519255 0.092997 0.509453 1 4 11
0.523057 0.095078 0.510454 25 24 19
0.520243 0.093498 0.510937 30 29 25
0.524217 0.091249 0.509095 1 0 5
0.517341 0.093081 0.507496 5 5 13
0.522044 0.088251 0.507788 16 15 20
0.51958 0.093663 0.504299 6 7 11
0.514656 0.094829 0.514753 24 24 26
0.521383 0.090832 0.514953 40 38 43
0.517882 0.093498 0.508537 0 1 6
0.489466 0.098742 0.515834 23 22 18
0.5128 0.101824 0.512045 27 24 19
0.509392 0.099408 0.512388 20 18 23
0.516163 0.102073 0.511545 30 30 22
0.514618 0.095995 0.511126 1 0 6
0.524586 0.099159 0.511822 20 18 23
0.522893 0.100741 0.510273 19 15 16
0.519522 0.095828 0.50887 3 4 9
0.523215 0.098409 0.513504 31 29 32
0.542441 0.092832 0.507009 30 26 27
0.532815 0.089585 0.508931 50 49 45
0.538612 0.090832 0.530446 16 16 16
0.53832 0.093996 0.528876 9 7 8
0.548514 0.09408 0.506161 18 16 17
0.537319 0.088835 0.50855 89 85 99
0.538985 0.090002 0.509567 86 80 66
0.534988 0.088586 0.509584 84 78 66
0.54217 0.094664 0.515577 18 18 18
0.542508 0.094496 0.526814 70 62 60
0.537152 0.089084 0.51034 24 23 28
0.538206 0.091084 0.529013 32 32 32
0.540166 0.088503 0.507968 19 19 21
0.54409 0.095162 0.526373 34 32 33
0.531486 0.09175 0.501976 13 12 17
0.540224 0.092415 0.512796 29 28 33
0.536899 0.088419 0.512037 41 36 40
0.539989 0.089168 0.513296 33 31 34
0.53909 0.093165 0.512705 18 18 18
0.539242 0.094997 0.510898 23 23 25
0.550416 0.088503 0.503822 184 178 162
0.55157 0.091417 0.505603 39 38 36
0.554295 0.088919 0.503756 179 173 151
0.567283 0.091 0.501083 27 24 19
0.561664 0.090083 0.5008 168 158 133
0.566675 0.089834 0.500534 85 79 65
0.56228 0.091417 0.501058 171 163 142
0.553323 0.089168 0.529195 18 17 22
0.549757 0.089918 0.52541 25 25 27
0.550336 0.094412 0.505979 17 17 17
0.551541 0.093747 0.505536 57 52 32
0.553959 0.092997 0.505477 65 60 54
0.563012 0.094913 0.503231 144 133 111
0.563395 0.091831 0.500409 91 84 74
0.568409 0.095162 0.500972 31 30 35
0.568282 0.093498 0.501375 74 68 56
0.559882 0.094496 0.502714 109 103 89
0.563553 0.092664 0.503478 142 131 129
0.540865 0.088835 0.535481 106 100 128
0.547684 0.090083 0.537554 126 112 135
0.539042 0.092913 0.532401 45 43 54
0.546785 0.094163 0.53663 112 106 144
0.544648 0.090667 0.536378 19 19 21
0.539914 0.088503 0.534247 36 32 29
0.539075 0.093498 0.533762 27 26 31
0.54873 0.088251 0.539343 32 30 35
0.548134 0.091498 0.536926 30 30 32
0.540624 0.089834 0.536418 23 22 27
0.551805 0.093831 0.536966 30 29 35
0.553171 0.094997 0.535789 86 82 99
0.55082 0.093498 0.537911 22 21 26
0.551447 0.091249 0.536759 36 32 33
0.541875 0.099159 0.507159 30 28 29
0.538293 0.097243 0.52803 47 44 53
0.546155 0.100658 0.52415 34 32 35
0.538528 0.09891 0.529222 35 34 39
0.538218 0.096244 0.527214 52 49 60
0.533458 0.102238 0.508391 34 32 33
0.546066 0.099824 0.50686 15 15 15
0.537654 0.09533 0.530826 12 12 12
0.5372 0.101656 0.52563 148 132 133
0.538682 0.097494 0.511273 19 17 18
0.537457 0.097162 0.523443 47 42 46
0.542148 0.099326 0.525458 15 15 15
0.544171 0.095911 0.525383 19 19 19
0.536367 0.095411 0.509108 18 16 17
0.55418 0.097827 0.526431 15 14 19
0.551874 0.100076 0.52425 13 12 18
0.550013 0.096493 0.506103 15 11 12
0.551252 0.10099 0.506213 13 13 15
0.567303 0.097162 0.503107 51 50 56
0.559685 0.095495 0.504706 47 47 47
0.553631 0.096661 0.526323 29 28 33
0.550631 0.096661 0.52372 27 27 29
0.555968 0.096994 0.527106 141 129 149
0.553148 0.102406 0.524208 18 17 23
0.553731 0.095746 0.524708 21 20 25
0.549147 0.098826 0.522092 22 22 22
0.567083 0.09533 0.502449 175 168 150
0.546108 0.099408 0.534771 28 26 27
0.542391 0.097911 0.532835 24 23 28
0.540391 0.096745 0.532659 55 49 61
0.545597 0.100409 0.533489 26 24 29
0.541409 0.098742 0.532993 29 28 33
0.547265 0.095995 0.537178 28 26 27
0.545322 0.099242 0.532802 27 26 32
0.555299 0.096412 0.533506 29 27 32
0.55337 0.100241 0.533008 131 119 141
0.550098 0.096661 0.535818 40 39 35
0.498147 0.106318 0.514878 27 25 26
0.488522 0.10815 0.516426 25 23 24
0.504214 0.106486 0.513736 27 23 24
0.495538 0.104819 0.515161 26 25 21
0.527811 0.104154 0.51112 26 25 23
0.513813 0.107401 0.512064 26 24 29
0.527353 0.107818 0.509997 24 23 21
0.517054 0.103155 0.511553 16 13 4
0.51003 0.106402 0.512513 21 19 20
0.528294 0.105404 0.511087 50 47 42
0.508895 0.108732 0.511728 146 142 115
0.52334 0.109649 0.510582 21 19 20
0.524081 0.106153 0.508373 30 27 20
0.52372 0.104403 0.506542 27 26 22
0.528396 0.103572 0.509482 18 17 15
0.52793 0.103404 0.508183 10 9 5
0.520978 0.104738 0.510539 26 22 23
0.525272 0.106069 0.508306 27 28 23
0.509186 0.104819 0.511645 124 120 93
0.526862 0.105818 0.512488 31 29 32
0.52551 0.102988 0.512355 34 31 38
0.527211 0.107485 0.505209 12 12 2
0.501191 0.115976 0.514253 28 24 25
0.494981 0.115559 0.515235 29 29 31
0.503947 0.116974 0.513795 27 23 24
0.501744 0.110231 0.513902 26 26 28
0.505163 0.116974 0.513456 28 27 32
0.51648 0.110564 0.51182 32 31 26
0.522557 0.110732 0.510688 31 30 25
0.512273 0.116225 0.512388 25 23 24
0.520873 0.116476 0.510914 27 23 24
0.524974 0.111481 0.509898 26 21 25
0.528202 0.112645 0.51109 40 38 43
0.542017 0.103905 0.529214 85 80 102
0.530125 0.106984 0.509505 38 36 39
0.531008 0.108984 0.509372 48 44 43
0.533415 0.107901 0.5087 31 29 34
0.543147 0.104903 0.507293 20 18 19
0.547603 0.109149 0.521211 14 13 19
0.544464 0.105737 0.528027 59 55 72
0.529076 0.10457 0.510704 30 29 27
0.533415 0.105404 0.509982 20 20 20
0.539325 0.107818 0.524616 65 62 79
0.544931 0.103071 0.506718 28 24 25
0.54104 0.109149 0.52551 41 39 44
0.532914 0.109233 0.517259 36 34 39
0.538376 0.104903 0.509522 84 80 95
0.533689 0.103656 0.508698 57 56 61
0.531807 0.107818 0.505159 30 29 27
0.536392 0.109233 0.521201 58 52 54
0.539225 0.105236 0.524974 71 63 74
0.52944 0.106402 0.514262 30 26 27
0.537394 0.107401 0.508182 58 55 66
0.54799 0.107068 0.519003 15 15 15
0.538068 0.107901 0.509838 54 48 58
0.54185 0.102906 0.524708 41 37 38
0.547503 0.103488 0.522427 32 30 33
0.538175 0.103821 0.5048 18 16 17
0.532251 0.104738 0.51019 26 24 27
0.540218 0.106651 0.526891 31 31 33
0.537596 0.106153 0.504711 31 27 28
0.542783 0.103572 0.530895 52 48 63
0.54691 0.108732 0.517276 16 16 16
0.54056 0.103071 0.507376 26 24 25
0.547659 0.102822 0.520231 20 20 20
0.533936 0.107068 0.51927 25 23 26
0.547395 0.10457 0.521894 31 29 34
0.547803 0.1094 0.526982 30 29 34
0.530631 0.104819 0.5166 23 21 26
0.553046 0.105569 0.527616 41 40 46
0.568856 0.103989 0.503061 60 58 69
0.55314 0.104154 0.525482 22 20 25
0.549538 0.10765 0.525987 32 26 30
0.550692 0.1089 0.521461 10 9 15
0.56676 0.108399 0.502971 22 22 22
0.559057 0.109566 0.506583 163 156 174
0.551017 0.103488 0.524866 11 10 16
0.551858 0.103404 0.523667 6 5 11
0.550637 0.106486 0.524596 27 27 27
0.557273 0.108483 0.504929 20 19 17
0.550687 0.108399 0.524979 23 22 18
0.550143 0.109566 0.522302 16 16 18
0.555377 0.105737 0.522801 132 119 139
0.554084 0.105152 0.524097 24 22 23
0.557566 0.107734 0.514051 182 175 191
0.548725 0.103071 0.532609 154 141 171
0.546643 0.102988 0.532259 122 109 137
0.5516 0.10332 0.531936 77 74 83
0.547307 0.114396 0.526521 34 32 37
0.535381 0.114728 0.50863 60 59 65
0.545529 0.110816 0.526349 30 29 34
0.542589 0.113895 0.507518 22 20 21
0.539394 0.110066 0.523677 32 31 37
0.547387 0.114477 0.520137 16 13 20
0.538692 0.112813 0.508107 60 59 64
0.533153 0.115226 0.508619 31 27 28
0.543947 0.116809 0.523286 25 24 29
0.545267 0.114477 0.525045 28 27 32
0.531859 0.114561 0.508923 30 30 32
0.53101 0.110066 0.508982 31 26 30
0.540813 0.115061 0.521657 31 31 33
0.542736 0.113727 0.524606 45 39 43
0.54001 0.113562 0.521128 50 45 42
0.540349 0.109982 0.507876 24 22 25
0.548647 0.114396 0.526296 25 24 29
0.546774 0.110897 0.52772 33 31 36
0.53648 0.115559 0.508496 69 61 72
0.53842 0.115145 0.520721 42 40 45
0.5372 0.116225 0.518887 28 24 25
0.54548 0.110564 0.523051 7 6 12
0.547795 0.110564 0.522302 1 0 6
0.542 0.114728 0.509123 16 16 18
0.538498 0.111563 0.516833 58 53 60
0.545805 0.110399 0.519854 37 35 38
0.540655 0.114894 0.519733 22 21 26
0.547326 0.113979 0.515819 18 18 20
0.546521 0.115061 0.514368 15 15 17
0.533148 0.112231 0.51641 44 42 47
0.556064 0.11173 0.505205 23 21 24
0.549549 0.11173 0.526848 196 188 209
0.558468 0.115643 0.504891 51 48 55
0.562778 0.113395 0.50406 56 52 53
0.552823 0.11481 0.52251 72 64 75
0.55304 0.111563 0.524067 89 84 91
0.550476 0.116893 0.517923 14 13 19
0.556024 0.115145 0.505186 19 17 18
0.551974 0.117058 0.52265 134 126 141
0.552848 0.113395 0.523184 53 50 57
0.550119 0.113562 0.506279 15 15 17
0.552907 0.110648 0.512446 30 28 33
0.55201 0.110648 0.515384 44 41 36
0.558726 0.114645 0.510022 33 31 36
0.567113 0.110732 0.50403 118 107 113
0.549774 0.113979 0.525943 44 41 50
0.555979 0.116893 0.508796 83 72 80
0.569008 0.115478 0.506816 34 30 29
0.556068 0.111563 0.514892 169 162 178
0.553712 0.113062 0.519046 129 117 137
0.559023 0.112312 0.505392 163 155 170
0.583462 0.114312 0.501544 153 148 142
0.570346 0.09974 0.503178 48 46 51
0.577846 0.110315 0.502786 58 54 53
0.572028 0.099491 0.501954 69 65 80
0.583651 0.115559 0.501854 118 115 106
0.57837 0.110231 0.501254 38 37 42
0.579503 0.114144 0.501179 103 96 90
0.572097 0.09766 0.502212 37 35 36
0.580606 0.117058 0.503443 142 134 131
0.570052 0.098493 0.50353 19 18 23
0.570865 0.11481 0.506059 36 32 31
0.572642 0.096661 0.501628 28 28 26
0.572509 0.11531 0.505708 34 30 27
0.51703 0.088919 0.651631 70 64 52
0.517817 0.089168 0.654915 140 137 92
0.515074 0.088002 0.655072 68 64 29
0.515774 0.088586 0.646921 65 59 25
0.518263 0.089084 0.656079 82 74 38
0.512672 0.088002 0.64973 98 89 46
0.50674 0.088419 0.6859 63 55 19
0.502802 0.088752 0.687133 156 142 103
0.516192 0.089001 0.659592 123 114 71
0.509205 0.088251 0.668401 71 62 33
0.518155 0.089333 0.659617 80 72 36
0.516939 0.089001 0.670632 57 49 28
0.511678 0.088335 0.667468 69 63 31
0.515499 0.088335 0.669067 56 51 22
0.518198 0.089834 0.665353 123 112 66
0.517701 0.089168 0.660944 93 83 32
0.512527 0.088251 0.666036 84 75 42
0.518196 0.089585 0.663938 74 65 32
0.510246 0.088419 0.671873 78 69 38
0.517856 0.088002 0.671194 47 39 26
0.519417 0.088752 0.657775 63 59 47
0.521765 0.088752 0.663719 65 61 50
0.521317 0.090002 0.670806 57 53 42
0.519461 0.090334 0.669806 96 89 81
0.516794 0.089084 0.684196 69 66 35
0.516195 0.089168 0.685803 84 80 43
0.513576 0.089168 0.679557 63 55 32
0.517364 0.089252 0.681555 63 56 28
0.510579 0.089168 0.681281 67 61 35
0.509138 0.089168 0.686492 89 74 45
0.517482 0.090002 0.675319 127 116 71
0.523382 0.089585 0.672854 62 58 47
0.52 0.088503 0.675404 15 16 10
0.525113 0.088586 0.677383 49 48 43
0.527893 0.088503 0.679631 113 107 85
0.524814 0.089168 0.674186 62 58 47
0.523929 0.089585 0.687168 60 57 40
0.520115 0.090334 0.678353 101 93 44
0.522376 0.090083 0.673263 90 83 39
0.52291 0.090251 0.676867 102 94 48
0.523222 0.090416 0.68204 68 65 48
0.523027 0.090916 0.685468 91 83 37
0.520871 0.0905 0.687357 99 93 43
0.51999 0.090916 0.680941 128 119 62
0.524745 0.0905 0.687094 65 62 45
0.511 0.092581 0.687352 14 14 2
0.514745 0.091666 0.687518 125 120 65
0.518414 0.092083 0.685441 142 139 132
0.506298 0.101491 0.680929 79 74 36
0.509391 0.097243 0.685029 113 109 74
0.509266 0.098826 0.683189 149 141 104
0.513178 0.100409 0.683328 100 94 60
0.509874 0.102073 0.679234 69 63 37
0.51079 0.100658 0.680933 125 117 81
0.513161 0.102322 0.682254 102 96 60
0.512563 0.102157 0.679925 65 59 35
0.508654 0.099659 0.682286 81 76 38
0.512753 0.095995 0.687341 63 58 38
0.515367 0.09691 0.687124 114 106 93
0.511606 0.099992 0.681857 110 104 70
0.508875 0.095828 0.687069 64 61 28
0.512405 0.096829 0.686278 107 102 73
0.531179 0.089252 0.686261 138 125 57
0.532212 0.088335 0.681374 152 143 68
0.531001 0.089252 0.687467 89 82 38
0.533276 0.088251 0.685576 106 99 45
0.506063 0.089001 0.698633 70 62 26
0.502394 0.088251 0.702631 173 160 128
0.50599 0.089001 0.710685 106 96 45
0.50794 0.094163 0.699976 104 92 50
0.507506 0.089417 0.702651 62 54 18
0.50465 0.088002 0.691861 86 78 32
0.506183 0.089084 0.707512 102 94 45
0.507773 0.094913 0.689581 130 117 75
0.507999 0.094913 0.702444 119 105 56
0.516878 0.089333 0.69084 79 75 38
0.513681 0.088752 0.69805 23 19 8
0.514343 0.08975 0.690521 30 26 23
0.509659 0.090167 0.702954 35 32 13
0.513816 0.0905 0.701207 56 49 33
0.521848 0.088586 0.691198 66 62 35
0.519245 0.088919 0.688749 52 45 26
0.519558 0.088586 0.698358 44 44 36
0.521906 0.089252 0.697126 41 40 35
0.521011 0.091417 0.689654 57 49 30
0.524229 0.090749 0.689075 76 73 56
0.528363 0.090416 0.695129 74 71 56
0.526119 0.091417 0.702288 64 61 44
0.527185 0.091498 0.700115 61 55 43
0.514782 0.090749 0.705948 33 32 1
0.509647 0.089918 0.715669 96 84 42
0.510721 0.090251 0.718675 101 89 39
0.514974 0.091165 0.716942 99 86 52
0.513974 0.091 0.711642 45 41 12
0.527484 0.088086 0.711812 132 129 78
0.528155 0.091249 0.714519 56 54 42
0.526968 0.087918 0.715092 138 136 87
0.523925 0.091417 0.718309 37 34 19
0.521319 0.089918 0.705905 26 19 11
0.513392 0.092332 0.69632 50 47 28
0.512287 0.093996 0.699155 72 66 40
0.512455 0.092832 0.690257 50 45 26
0.5094 0.094829 0.690832 144 136 113
0.513925 0.094247 0.697477 64 59 37
0.510605 0.093498 0.699346 55 52 35
0.511363 0.091999 0.690896 42 40 28
0.51078 0.09458 0.695917 140 134 76
0.514313 0.092415 0.702263 80 70 34
0.523033 0.092248 0.700241 60 56 27
0.527081 0.091915 0.702751 130 122 60
0.522816 0.092083 0.696603 66 59 30
0.522477 0.092248 0.701386 91 83 44
0.523149 0.092166 0.702523 73 68 36
0.524744 0.092166 0.694353 143 130 60
0.521764 0.091831 0.697943 101 94 40
0.523188 0.092083 0.698126 92 82 31
0.528489 0.093249 0.71877 104 98 48
0.526238 0.092832 0.708367 74 68 32
0.527559 0.09175 0.703828 69 66 49
0.524942 0.092664 0.7048 97 90 46
0.526788 0.093498 0.717966 84 75 42
0.525281 0.092997 0.707726 83 78 38
0.522492 0.091831 0.710598 48 41 23
0.5237 0.092499 0.70568 54 49 30
0.5193 0.091666 0.705944 75 71 26
0.525297 0.093165 0.718391 61 54 28
0.523466 0.092083 0.717334 60 54 30
0.523437 0.092664 0.711905 90 83 31
0.506348 0.089669 0.72841 103 93 42
0.505717 0.089834 0.73616 108 92 43
0.5043 0.089084 0.72901 115 103 51
0.501236 0.088835 0.734401 144 128 94
0.501528 0.088503 0.747256 176 164 140
0.505025 0.089084 0.723187 160 147 113
0.506631 0.090167 0.733214 116 104 54
0.504408 0.089417 0.740321 126 112 77
0.507297 0.090167 0.735404 124 113 59
0.504275 0.088919 0.727711 122 111 57
0.508138 0.08975 0.720181 165 151 122
0.508023 0.08975 0.721757 102 89 44
0.507647 0.090251 0.744708 123 108 75
0.502227 0.088503 0.740765 76 69 25
0.50778 0.090334 0.73784 174 159 136
0.506273 0.08975 0.747992 119 110 53
0.507557 0.08975 0.726343 144 129 62
0.516897 0.092248 0.729173 91 78 44
0.510419 0.091084 0.746482 122 106 72
0.516464 0.092415 0.738597 131 116 77
0.515248 0.092166 0.744337 65 57 20
0.515806 0.091666 0.723345 114 99 68
0.509595 0.090749 0.749715 65 57 18
0.519795 0.093498 0.749889 45 38 12
0.518795 0.093165 0.746981 130 115 74
0.518162 0.092581 0.731512 67 62 33
0.518545 0.091915 0.724813 47 42 20
0.528136 0.094247 0.728182 81 73 36
0.526188 0.093414 0.736824 62 57 28
0.521043 0.092581 0.731371 77 71 39
0.51574 0.092083 0.734205 57 51 15
0.522625 0.091582 0.719052 49 44 22
0.515856 0.091582 0.719826 45 41 12
0.512484 0.091165 0.72675 121 109 69
0.517596 0.092913 0.747725 58 52 18
0.528394 0.094412 0.730022 82 77 39
0.511235 0.091165 0.748383 59 55 18
0.513617 0.09175 0.740371 162 148 121
0.5222 0.092832 0.737935 50 47 16
0.525289 0.093498 0.748047 77 68 37
0.515889 0.092166 0.736952 63 58 20
0.511377 0.091333 0.732814 89 82 38
0.512068 0.091333 0.730317 77 70 26
0.516347 0.092499 0.731146 81 70 38
0.508854 0.0905 0.747559 71 64 22
0.514376 0.091417 0.723614 48 43 21
0.52464 0.092581 0.732794 63 58 29
0.517047 0.092332 0.736911 61 57 20
0.527284 0.093663 0.724302 93 80 36
0.527955 0.091666 0.72447 41 38 21
0.522841 0.091915 0.720747 62 57 28
0.514149 0.092083 0.732311 108 92 56
0.508689 0.090083 0.726543 105 92 40
0.52086 0.09333 0.742968 118 102 68
0.511818 0.090583 0.718902 63 52 20
0.511618 0.091333 0.736791 173 158 135
0.515073 0.092166 0.735334 125 109 75
0.52743 0.092083 0.73108 42 39 22
0.52111 0.092083 0.726958 65 58 32
0.527156 0.092581 0.737574 50 45 23
0.504983 0.101491 0.70827 82 74 37
0.504908 0.099326 0.706364 96 88 49
0.507658 0.097162 0.705342 139 126 71
0.507506 0.102406 0.707163 67 62 22
0.505832 0.099908 0.705781 90 81 38
0.505984 0.100076 0.709013 137 125 67
0.506794 0.096328 0.703503 94 81 39
0.50581 0.098993 0.707614 151 138 85
0.509341 0.099242 0.703004 124 114 52
0.512736 0.095995 0.689006 91 84 55
0.510499 0.098993 0.703022 61 56 24
0.515767 0.101407 0.706357 93 84 45
0.510199 0.101323 0.706334 187 176 96
0.509853 0.10099 0.704937 106 100 64
0.508682 0.100076 0.70823 109 99 50
0.512886 0.095662 0.700862 97 91 59
0.509748 0.096829 0.704575 206 201 198
0.508657 0.101905 0.702136 133 125 63
0.509473 0.095995 0.703094 99 89 40
0.509505 0.09691 0.706013 103 96 68
0.513194 0.100823 0.709129 155 142 107
0.51121 0.097411 0.700424 117 108 65
0.531618 0.088586 0.692598 119 115 88
0.532676 0.088752 0.697876 105 101 74
0.535871 0.088668 0.698418 81 75 43
0.534582 0.088251 0.702588 100 97 66
0.533741 0.088002 0.697926 94 89 67
0.53655 0.088251 0.699417 96 90 30
0.531159 0.090002 0.695238 87 80 38
0.52902 0.0905 0.697826 75 72 57
0.532984 0.090167 0.700603 108 101 49
0.531275 0.089417 0.707654 52 49 32
0.53116 0.089333 0.710934 39 35 23
0.528962 0.089417 0.703308 65 59 35
0.534757 0.088668 0.705552 102 99 68
0.537405 0.088668 0.704608 134 127 73
0.536838 0.088335 0.71322 140 135 95
0.535489 0.089168 0.711222 106 101 71
0.537421 0.088668 0.717474 129 123 87
0.529945 0.091417 0.707958 72 70 55
0.532392 0.090167 0.706709 126 123 90
0.534244 0.0905 0.708725 96 89 35
0.5327 0.091498 0.717782 113 107 83
0.531826 0.091417 0.713903 79 74 54
0.532209 0.091417 0.715185 85 81 54
0.532957 0.089834 0.715314 48 45 26
0.536254 0.090416 0.713096 78 69 38
0.534024 0.090916 0.718315 136 131 93
0.534027 0.091249 0.712312 160 150 65
0.535609 0.090667 0.712079 168 158 71
0.539487 0.089001 0.714998 86 81 41
0.539112 0.088668 0.711618 115 109 61
0.539145 0.088086 0.710328 122 117 77
0.530011 0.092499 0.717025 61 57 45
0.530794 0.091999 0.715609 75 72 55
0.537979 0.088586 0.719889 129 122 94
0.530827 0.089669 0.729663 119 115 70
0.536164 0.0905 0.721929 114 111 80
0.529437 0.089001 0.725775 147 142 86
0.537513 0.089585 0.721671 114 110 81
0.530111 0.091 0.725975 77 74 55
0.537702 0.091084 0.72123 92 87 49
0.528729 0.088668 0.722578 125 121 74
0.530711 0.090167 0.728581 105 101 66
0.531094 0.089834 0.732652 119 110 69
0.535256 0.089252 0.719401 38 36 23
0.534033 0.089834 0.725803 46 43 26
0.542184 0.089252 0.730842 140 136 98
0.541051 0.088419 0.732344 165 160 118
0.539151 0.090251 0.719973 69 64 34
0.54182 0.089333 0.729564 124 116 79
0.5399 0.090167 0.722304 77 71 37
0.539405 0.088503 0.733251 119 111 74
0.529646 0.089252 0.74407 112 108 63
0.529454 0.089084 0.738208 126 120 72
0.530995 0.089669 0.740398 122 115 71
0.538504 0.091333 0.735111 129 123 87
0.529138 0.089001 0.742005 122 118 70
0.531444 0.090002 0.736485 125 121 74
0.531021 0.088419 0.740028 88 80 44
0.544132 0.090083 0.745926 194 191 160
0.542309 0.089084 0.738092 170 166 128
0.543599 0.089834 0.742088 179 176 133
0.540121 0.089001 0.741168 156 150 98
0.543483 0.089669 0.744919 161 157 119
0.539022 0.088586 0.735224 114 106 69
0.531002 0.093996 0.732694 82 80 59
0.536797 0.091915 0.73316 134 131 98
0.534916 0.092748 0.733713 96 91 69
0.529404 0.093249 0.722403 81 78 61
0.531127 0.093165 0.726383 74 71 54
0.535764 0.092083 0.731353 116 112 77
0.53539 0.092166 0.724298 104 96 47
0.53861 0.092581 0.734376 83 74 41
0.537305 0.091666 0.725297 98 92 44
0.538364 0.091999 0.728696 143 134 59
0.531139 0.091666 0.724176 39 35 23
0.534376 0.092664 0.725042 105 99 41
0.531814 0.091915 0.731062 35 32 17
0.539888 0.09175 0.731086 138 129 60
0.536897 0.092415 0.736843 128 125 90
0.533401 0.094496 0.743329 83 77 61
0.533332 0.094331 0.739455 87 79 42
0.532202 0.094664 0.741514 77 73 48
0.533992 0.093582 0.736835 78 75 56
0.538646 0.092748 0.736262 106 98 52
0.534866 0.092913 0.735111 90 88 63
0.535515 0.093582 0.736562 107 99 53
0.533176 0.092997 0.746592 78 74 47
0.537648 0.09408 0.743474 140 133 55
0.53604 0.092832 0.737542 110 106 77
0.529207 0.094664 0.736741 97 87 36
0.531952 0.093831 0.740073 90 87 56
0.531608 0.094997 0.743226 84 76 40
0.528786 0.09458 0.745566 83 72 42
0.528936 0.094913 0.739696 80 71 40
0.529105 0.094997 0.741674 120 107 73
0.533725 0.091999 0.748765 82 76 52
0.530243 0.091999 0.737535 61 57 30
0.532676 0.093498 0.743962 93 89 60
0.53657 0.092083 0.741215 58 54 29
0.528579 0.092913 0.745142 41 38 19
0.539878 0.092499 0.746709 145 139 103
0.540708 0.093747 0.749287 85 77 38
0.539542 0.092581 0.737781 87 80 38
0.543333 0.091999 0.745229 110 104 52
0.540619 0.092748 0.742048 105 99 49
0.540294 0.092499 0.738835 112 104 55
0.543724 0.092166 0.747843 99 93 41
0.542109 0.093081 0.748342 114 107 55
0.541352 0.091915 0.738302 116 111 56
0.541085 0.092415 0.740358 96 88 42
0.542784 0.092581 0.747027 115 108 56
0.539501 0.093996 0.748605 80 71 32
0.539763 0.093414 0.742725 148 141 63
0.53947 0.091999 0.742188 124 118 86
0.531891 0.095579 0.748721 88 80 41
0.530443 0.095162 0.743926 87 77 42
0.503751 0.111481 0.670256 81 76 36
0.503247 0.116144 0.66505 81 74 32
0.50557 0.11481 0.66823 88 80 41
0.513369 0.104819 0.679673 103 97 61
0.506587 0.104238 0.677428 54 48 26
0.512897 0.107317 0.674748 83 78 40
0.508635 0.113313 0.671211 116 107 64
0.509791 0.108318 0.672307 169 159 110
0.50614 0.109233 0.671755 76 66 39
0.512914 0.105902 0.67907 96 87 48
0.512098 0.1089 0.676139 91 83 46
0.509606 0.103239 0.682245 161 150 105
0.51169 0.115811 0.668097 89 79 43
0.510732 0.114312 0.665638 154 146 99
0.51122 0.116893 0.667434 104 94 58
0.506319 0.114477 0.665738 181 173 137
0.51303 0.103989 0.678019 127 121 99
0.510857 0.111814 0.673076 103 95 49
0.503659 0.112396 0.669315 77 69 33
0.504273 0.11481 0.668187 149 133 74
0.506362 0.111481 0.669243 60 54 28
0.513436 0.106567 0.677841 96 89 45
0.506603 0.113646 0.666528 74 66 43
0.504063 0.117058 0.66321 98 89 46
0.510063 0.117058 0.667426 147 133 106
0.51048 0.110315 0.674952 136 122 83
0.506548 0.102573 0.68147 86 78 41
0.50465 0.107983 0.673445 94 89 51
0.504181 0.116309 0.664311 79 76 35
0.514329 0.115976 0.66733 150 143 117
0.507641 0.106984 0.678125 150 141 76
0.507751 0.105986 0.675088 184 175 142
0.514476 0.115643 0.665994 78 71 53
0.504278 0.106235 0.677343 126 115 59
0.503334 0.105653 0.675951 81 75 43
0.508317 0.103989 0.708715 151 143 62
0.503247 0.108483 0.716758 84 77 33
0.512193 0.104403 0.708362 81 76 38
0.515357 0.103989 0.705757 151 137 98
0.507235 0.105737 0.710938 163 148 65
0.519647 0.113646 0.718312 113 107 75
0.5061 0.116642 0.72762 109 100 67
0.502635 0.108234 0.717903 95 86 47
0.514715 0.109149 0.712009 81 72 31
0.515234 0.105737 0.711211 116 108 59
0.506148 0.104903 0.710702 75 70 30
0.504238 0.110147 0.717299 191 179 95
0.503372 0.113146 0.721456 77 69 30
0.519039 0.108067 0.71131 106 100 66
0.509337 0.104403 0.709537 38 37 19
0.5178 0.115061 0.716666 178 168 79
0.518329 0.106486 0.709145 98 92 60
0.503961 0.104321 0.714316 179 168 123
0.516077 0.106651 0.708007 183 171 85
0.515357 0.112063 0.714948 79 75 30
0.516027 0.108483 0.710114 176 164 80
0.504779 0.103488 0.710239 74 68 32
0.516749 0.108399 0.713633 176 166 131
0.503612 0.109317 0.720311 156 143 91
0.505435 0.107983 0.718513 130 121 66
0.506009 0.113313 0.724456 128 117 87
0.517932 0.103989 0.706606 103 94 61
0.513979 0.105071 0.707425 180 161 93
0.519788 0.111314 0.714898 99 94 64
0.514085 0.107485 0.713251 108 100 54
0.507491 0.11173 0.721084 93 86 57
0.508774 0.107236 0.714407 89 80 47
0.517915 0.1089 0.713883 154 145 114
0.521247 0.117058 0.719672 56 53 38
0.505735 0.102988 0.712543 145 134 78
0.506326 0.104738 0.71455 136 123 68
0.516297 0.103071 0.704558 92 83 52
0.503975 0.10815 0.715888 79 71 32
0.517742 0.106153 0.707524 144 135 70
0.519747 0.111065 0.713766 107 101 67
0.51928 0.115478 0.720577 142 134 115
0.502629 0.11173 0.723175 164 154 101
0.457298 0.059114 0.756766 173 160 92
0.458893 0.060694 0.755493 172 160 110
0.459346 0.060862 0.761995 194 180 117
0.459854 0.06186 0.759256 197 185 125
0.458835 0.060361 0.757358 176 164 114
0.459848 0.059944 0.755959 138 129 50
0.460073 0.060277 0.75471 149 138 58
0.459418 0.061027 0.758249 177 164 111
0.460687 0.060445 0.775562 160 149 95
0.459904 0.05903 0.775695 144 133 87
0.459604 0.060361 0.769138 178 167 103
0.459596 0.059446 0.774591 167 152 95
0.462402 0.060196 0.781257 97 87 60
0.460137 0.059944 0.776523 169 158 94
0.466191 0.065191 0.763923 134 124 62
0.462856 0.065023 0.759856 179 168 114
0.462035 0.06494 0.756 196 187 122
0.463506 0.065608 0.760797 173 162 108
0.461795 0.063692 0.764147 169 154 111
0.463936 0.063026 0.764959 146 138 55
0.465709 0.065272 0.755501 156 148 65
0.461179 0.063692 0.758777 171 158 114
0.462765 0.065272 0.757483 177 165 113
0.463032 0.06261 0.761197 108 98 37
0.464017 0.063857 0.779433 171 160 106
0.463068 0.063275 0.778313 190 175 110
0.465876 0.063692 0.778604 147 140 60
0.4646 0.065773 0.772332 174 163 109
0.467208 0.065857 0.767281 150 141 64
0.463191 0.064607 0.7672 199 187 149
0.464236 0.063026 0.767923 174 167 76
0.466042 0.064691 0.767898 148 140 59
0.461311 0.059195 0.782281 131 124 80
0.465525 0.06311 0.807715 135 116 74
0.461827 0.059279 0.784429 152 144 97
0.465213 0.062193 0.790934 144 135 58
0.464267 0.062442 0.798266 165 152 99
0.466912 0.063524 0.79498 164 154 67
0.467278 0.063026 0.807576 84 78 44
0.464011 0.061692 0.783466 147 137 66
0.467128 0.064607 0.78162 75 67 30
0.467486 0.063941 0.797369 170 160 73
0.464766 0.061944 0.80776 157 144 89
0.464565 0.063191 0.792285 192 179 134
0.464372 0.060778 0.80169 77 69 48
0.464947 0.062193 0.788269 164 153 63
0.463019 0.060529 0.784595 101 93 56
0.466772 0.063026 0.803862 149 130 62
0.465916 0.065608 0.789715 171 157 108
0.462735 0.061194 0.793415 186 171 112
0.463978 0.062442 0.799516 163 148 91
0.466237 0.061776 0.811281 86 81 52
0.463233 0.060112 0.792734 169 157 119
0.461181 0.060445 0.785471 165 148 102
0.462452 0.059779 0.789865 146 140 92
0.46814 0.065608 0.781643 138 128 56
0.469271 0.06544 0.798674 141 127 62
0.468579 0.065857 0.809422 164 152 94
0.468238 0.065608 0.810874 158 145 77
0.469359 0.065689 0.796312 158 148 61
0.465903 0.068603 0.762104 173 161 109
0.467076 0.071352 0.751222 166 155 101
0.466166 0.067188 0.779025 180 167 125
0.467414 0.066522 0.760135 133 118 63
0.466231 0.068105 0.772835 191 179 119
0.466839 0.067689 0.777668 181 169 119
0.464846 0.068771 0.75128 184 174 125
0.465129 0.06827 0.757042 179 167 117
0.465058 0.066939 0.770287 178 166 94
0.465495 0.069521 0.751897 189 177 127
0.463317 0.067356 0.750422 200 189 127
0.46398 0.066855 0.756834 176 163 111
0.464075 0.06669 0.762752 196 185 121
0.464958 0.066522 0.768011 173 164 109
0.467757 0.06669 0.761354 146 135 53
0.469872 0.069353 0.752379 120 110 51
0.468057 0.067521 0.756539 190 175 92
0.469789 0.068603 0.75973 144 134 62
0.468548 0.066106 0.77937 138 131 61
0.471121 0.069353 0.766257 150 138 62
0.47032 0.068936 0.780474 34 30 31
0.46873 0.06827 0.772939 28 28 28
0.473016 0.071185 0.763601 96 86 51
0.473749 0.072351 0.757499 79 71 48
0.471471 0.070519 0.756208 94 85 46
0.469238 0.073017 0.765196 165 152 107
0.472125 0.071352 0.752179 83 76 50
0.472187 0.070351 0.765417 145 135 63
0.469 0.0731 0.75929 183 171 121
0.472216 0.070603 0.764283 163 147 70
0.469304 0.071767 0.772989 156 146 84
0.475954 0.0731 0.77986 42 39 34
0.473973 0.071185 0.778704 25 24 22
0.468671 0.06977 0.779342 167 156 102
0.475647 0.072516 0.770662 23 22 18
0.473216 0.071101 0.76744 110 103 48
0.472133 0.070603 0.774015 23 23 23
0.467196 0.066855 0.788813 205 191 154
0.467392 0.066855 0.797718 166 154 96
0.469925 0.066939 0.786404 146 135 55
0.469739 0.066855 0.783308 157 146 67
0.468954 0.069437 0.785428 179 169 110
0.471193 0.068855 0.810896 177 166 112
0.468396 0.066939 0.803872 177 164 96
0.470916 0.066522 0.806386 97 92 50
0.470076 0.068438 0.805031 182 166 114
0.472881 0.068105 0.809999 147 136 57
0.47116 0.072351 0.783871 175 164 110
0.472251 0.072933 0.790581 176 167 112
0.475216 0.071685 0.78875 123 111 53
0.476011 0.072267 0.78772 135 126 59
0.47592 0.072351 0.786221 136 127 58
0.476238 0.072849 0.782359 88 82 50
0.472786 0.069686 0.784072 180 165 80
0.472118 0.073017 0.788991 170 159 103
0.474042 0.070936 0.782281 115 104 50
0.474946 0.071185 0.789868 160 148 64
0.469961 0.070936 0.783072 171 161 108
0.476361 0.072435 0.791591 151 139 67
0.472692 0.070768 0.811071 161 151 90
0.47483 0.07027 0.802664 30 28 31
0.475415 0.071518 0.803186 64 66 63
0.47538 0.070435 0.809515 32 30 31
0.472326 0.071269 0.805776 179 168 112
0.471846 0.070351 0.812038 164 148 88
0.471202 0.070351 0.804214 182 170 96
0.474275 0.071518 0.80257 64 66 61
0.477638 0.071101 0.809597 93 98 102
0.478735 0.073182 0.803796 27 25 26
0.46798 0.064274 0.8155 130 120 71
0.472685 0.067356 0.820195 162 154 151
0.474496 0.069104 0.820639 150 138 64
0.469756 0.064858 0.820579 146 135 79
0.474499 0.072351 0.815442 173 162 106
0.468133 0.065524 0.812954 163 147 87
0.476323 0.070684 0.818505 159 153 141
0.472168 0.067023 0.828287 146 132 103
0.470159 0.065272 0.817218 161 150 70
0.469513 0.065857 0.819071 148 135 83
0.476405 0.070936 0.834707 148 135 101
0.475495 0.069686 0.829797 149 139 67
0.47375 0.06827 0.821361 157 152 146
0.470369 0.067023 0.818342 165 150 83
0.46987 0.066106 0.820274 160 145 78
0.474921 0.069188 0.828873 128 119 54
0.477801 0.069602 0.830996 94 83 61
0.472892 0.065272 0.827247 138 132 106
0.476706 0.072933 0.814542 155 148 140
0.479791 0.072516 0.835917 117 107 71
0.472312 0.068687 0.824768 157 139 77
0.472859 0.06669 0.826498 142 136 136
0.469299 0.06619 0.817808 159 143 83
0.469241 0.074015 0.754353 178 169 114
0.475231 0.073598 0.752012 83 77 51
0.47002 0.073931 0.765625 186 175 109
0.468863 0.073517 0.757853 171 156 115
0.477021 0.074348 0.763843 97 93 56
0.475297 0.07385 0.754085 91 85 53
0.473221 0.076096 0.754436 97 87 34
0.470477 0.075763 0.754294 145 125 62
0.487701 0.076513 0.751096 115 106 51
0.480659 0.074597 0.751063 127 120 65
0.479002 0.074432 0.760837 94 88 52
0.485113 0.076096 0.762836 157 149 74
0.478078 0.074015 0.75108 84 77 48
0.477895 0.074432 0.755216 122 114 68
0.487826 0.076846 0.764143 130 118 60
0.478486 0.074183 0.753211 81 74 45
0.485516 0.076015 0.751252 165 154 90
0.487826 0.076762 0.761062 152 144 71
0.481092 0.075014 0.75983 141 131 72
0.472384 0.07618 0.769135 173 162 106
0.473183 0.076597 0.773905 176 164 112
0.472317 0.075265 0.775321 170 158 106
0.4716 0.075346 0.768124 188 177 132
0.473666 0.07668 0.777002 171 158 106
0.472359 0.075514 0.773489 165 152 100
0.477453 0.074432 0.766014 77 74 39
0.482016 0.075346 0.775224 32 31 29
0.480059 0.075265 0.777971 30 29 25
0.478811 0.076015 0.780461 32 31 27
0.480259 0.074765 0.771852 31 30 28
0.482865 0.075598 0.776731 31 30 28
0.487144 0.076597 0.775441 29 28 26
0.487502 0.07668 0.768206 76 70 54
0.480817 0.074849 0.775782 28 27 25
0.478286 0.074681 0.771078 39 37 38
0.477234 0.079427 0.763394 158 147 85
0.476268 0.07901 0.756659 153 143 82
0.475206 0.07743 0.759414 145 134 72
0.475538 0.078594 0.759099 176 158 94
0.474432 0.077262 0.761262 152 138 73
0.477571 0.07976 0.759614 141 126 67
0.479923 0.080509 0.762387 148 137 73
0.478366 0.079844 0.750748 149 137 79
0.478557 0.079927 0.764085 164 153 91
0.47534 0.076846 0.767078 85 77 28
0.477254 0.078012 0.768643 121 109 49
0.476014 0.07743 0.773681 93 86 31
0.477629 0.077262 0.774879 86 79 27
0.487617 0.077262 0.781044 139 129 58
0.478662 0.079927 0.779342 145 135 74
0.47892 0.080176 0.76737 143 131 71
0.479319 0.080509 0.769276 146 137 72
0.479228 0.077763 0.780216 118 106 46
0.478695 0.080009 0.775096 151 141 79
0.478129 0.077928 0.773955 120 110 49
0.473575 0.074264 0.794095 169 158 104
0.479034 0.074516 0.794888 99 93 59
0.479017 0.074932 0.789335 80 75 46
0.481706 0.076929 0.799609 28 26 29
0.475506 0.077928 0.782189 167 156 100
0.482488 0.080009 0.807669 102 89 45
0.480516 0.074849 0.812289 26 26 16
0.482848 0.076015 0.781976 103 98 56
0.475173 0.075931 0.796767 171 158 105
0.474366 0.076015 0.789358 175 163 113
0.476527 0.077844 0.799685 163 148 105
0.481223 0.075598 0.806477 29 28 26
0.473117 0.074264 0.792883 183 172 106
0.487676 0.077346 0.784132 132 122 63
0.474615 0.077097 0.782622 175 164 110
0.474982 0.077178 0.786102 172 160 108
0.479869 0.080009 0.807832 130 118 58
0.481116 0.075598 0.808475 27 27 27
0.485261 0.076762 0.791325 121 113 64
0.479184 0.075931 0.785688 77 70 41
0.479731 0.079927 0.789276 154 137 65
0.481598 0.076015 0.791841 100 96 59
0.4736 0.075514 0.787929 176 163 95
0.483996 0.076846 0.802098 32 31 29
0.475023 0.076015 0.795427 165 155 96
0.487093 0.077511 0.803822 33 32 28
0.484638 0.076513 0.783808 118 111 57
0.477404 0.078677 0.789391 140 129 67
0.475157 0.077178 0.790905 167 154 109
0.483846 0.076348 0.787071 105 101 54
0.480252 0.07976 0.791234 155 139 77
0.475598 0.075598 0.805076 174 164 105
0.480059 0.075098 0.802014 25 25 25
0.479788 0.076015 0.788368 144 133 77
0.47498 0.074849 0.80444 197 184 140
0.479367 0.074765 0.798102 27 26 24
0.481184 0.080425 0.795735 143 132 70
0.478595 0.078594 0.789907 89 81 32
0.471926 0.073433 0.783113 174 165 110
0.472592 0.073682 0.791825 182 167 100
0.478545 0.078096 0.785461 81 72 29
0.476655 0.078096 0.782789 151 139 81
0.483423 0.07618 0.783591 107 102 60
0.485305 0.078428 0.797343 68 63 44
0.487567 0.077178 0.793973 29 28 26
0.479627 0.080342 0.786177 161 149 91
0.473083 0.073517 0.798502 184 173 107
0.475623 0.078012 0.786555 125 109 57
0.478893 0.076846 0.782632 75 70 48
0.48442 0.07668 0.797353 35 33 36
0.478099 0.079427 0.803987 135 115 56
0.477762 0.076846 0.784888 69 64 42
0.479586 0.079343 0.799581 119 110 53
0.475022 0.075181 0.801526 183 169 120
0.47867 0.079178 0.796634 128 116 56
0.478553 0.07901 0.784515 152 141 77
0.479228 0.079343 0.790568 137 125 67
0.480735 0.080926 0.765863 144 133 71
0.485027 0.082674 0.775316 147 130 76
0.483282 0.082092 0.767803 134 121 66
0.486746 0.083589 0.768253 140 128 68
0.48501 0.082506 0.757075 145 133 73
0.481101 0.080926 0.780999 149 138 76
0.487786 0.083589 0.75894 148 138 76
0.480976 0.080926 0.776028 157 145 85
0.487562 0.083756 0.770659 143 132 70
0.479892 0.080509 0.771729 163 146 77
0.481022 0.080842 0.751264 144 132 74
0.481342 0.081343 0.761867 171 159 133
0.481097 0.080842 0.753595 146 136 74
0.482325 0.081759 0.763532 167 156 128
0.480393 0.080926 0.770034 140 128 68
0.487811 0.084005 0.767812 131 121 60
0.482618 0.081841 0.759843 149 131 65
0.48612 0.082842 0.752604 149 137 77
0.48533 0.082758 0.80978 148 136 76
0.482699 0.081592 0.790765 158 146 88
0.481492 0.081343 0.797953 146 135 71
0.484439 0.082341 0.812161 149 138 72
0.483997 0.082092 0.792468 169 155 84
0.483462 0.081508 0.812414 117 103 58
0.485314 0.082758 0.796801 145 133 73
0.482766 0.081592 0.783355 150 139 77
0.483965 0.082174 0.794436 158 146 86
0.483266 0.082092 0.80861 144 133 77
0.487345 0.083424 0.788043 144 134 65
0.480402 0.080926 0.784873 124 113 57
0.483582 0.082257 0.797828 155 143 83
0.48344 0.082008 0.799124 145 134 72
0.481709 0.081424 0.791434 134 121 66
0.487813 0.084005 0.791414 150 133 63
0.487428 0.083756 0.805119 134 122 62
0.484856 0.08259 0.798008 143 131 71
0.483848 0.082257 0.80595 140 129 67
0.483042 0.082008 0.782272 145 126 60
0.484889 0.082758 0.810991 139 127 69
0.486393 0.083256 0.796571 138 120 70
0.482516 0.080926 0.810708 117 104 59
0.483316 0.080093 0.834915 148 138 79
0.480032 0.080009 0.81701 158 144 95
0.478062 0.075598 0.825294 170 156 83
0.480516 0.074183 0.824527 158 151 70
0.482073 0.07543 0.823487 119 115 54
0.484872 0.080842 0.838903 115 106 51
0.478836 0.074015 0.833159 160 148 88
0.479278 0.078512 0.818447 167 156 100
0.481201 0.076348 0.835789 156 144 86
0.480148 0.078428 0.826027 155 141 92
0.483196 0.076264 0.826276 117 111 63
0.484274 0.076762 0.835648 84 81 48
0.486276 0.081424 0.836442 129 112 68
0.481789 0.075098 0.833644 149 139 67
0.480252 0.078926 0.824453 170 154 92
0.484738 0.080593 0.836844 159 143 84
0.480969 0.074264 0.837113 107 102 60
0.483629 0.076846 0.820781 98 92 56
0.479902 0.07618 0.830936 163 151 91
0.480019 0.074849 0.837596 150 140 81
0.481692 0.076513 0.839161 164 154 92
0.484381 0.080677 0.826498 98 89 34
0.481373 0.074765 0.826484 154 145 70
0.47718 0.075346 0.82119 171 156 89
0.487736 0.08334 0.826615 133 123 64
0.483719 0.080425 0.836042 154 138 86
0.485147 0.080758 0.822926 124 114 55
0.478269 0.079262 0.81904 107 100 81
0.485061 0.078012 0.818383 61 58 43
0.486055 0.080758 0.839179 119 107 55
0.480716 0.077844 0.812696 83 76 60
0.481736 0.074099 0.834625 151 135 83
0.483732 0.081424 0.821098 130 115 56
0.486361 0.079094 0.844346 67 62 40
0.486246 0.082842 0.828022 134 122 64
0.478965 0.078179 0.821513 164 148 89
0.479259 0.078179 0.819826 190 177 132
0.485519 0.077511 0.814295 105 99 65
0.488741 0.076846 0.751796 148 140 68
0.488092 0.076762 0.758565 153 144 65
0.489058 0.077097 0.759222 138 131 63
0.496284 0.078845 0.750755 132 124 61
0.49417 0.078261 0.751837 136 126 65
0.495726 0.078677 0.751796 144 135 68
0.490077 0.077262 0.751507 162 152 99
0.491813 0.077844 0.757066 161 152 75
0.501455 0.080425 0.760821 120 114 56
0.500289 0.080093 0.760379 145 136 71
0.501854 0.080425 0.753652 137 130 62
0.501321 0.080342 0.758373 118 109 52
0.499515 0.079844 0.754651 132 126 66
0.500131 0.080093 0.759081 117 108 53
0.494186 0.078512 0.765974 126 118 55
0.493079 0.078179 0.766707 122 115 61
0.491823 0.077679 0.767487 99 91 72
0.488558 0.077097 0.766957 130 120 59
0.496509 0.079094 0.775174 31 30 28
0.497775 0.079927 0.774983 30 29 27
0.497758 0.079927 0.776989 33 31 32
0.496717 0.079595 0.777564 54 50 39
0.488418 0.077844 0.77215 67 59 46
0.488326 0.077346 0.769295 89 86 51
0.495269 0.077346 0.767564 32 31 29
0.500697 0.08026 0.768455 30 29 27
0.505409 0.080425 0.766307 29 27 28
0.489479 0.077844 0.785245 178 164 99
0.489516 0.077679 0.791143 33 32 30
0.497916 0.080009 0.784982 34 33 31
0.489399 0.077763 0.783192 142 131 67
0.491181 0.078261 0.783092 150 140 69
0.494453 0.078512 0.789044 31 27 28
0.488383 0.077511 0.79041 32 31 29
0.49009 0.078261 0.799002 33 29 30
0.489332 0.077262 0.794773 30 29 27
0.48969 0.077763 0.792824 28 26 27
0.49029 0.078261 0.804439 38 36 37
0.496492 0.079676 0.791817 33 32 28
0.488741 0.077928 0.803464 29 28 26
0.500938 0.080425 0.782351 33 32 30
0.496442 0.080009 0.806928 33 31 32
0.489924 0.078179 0.794365 26 25 23
0.501954 0.080093 0.783067 34 33 31
0.499065 0.080342 0.804039 32 31 29
0.491297 0.078677 0.796796 35 34 32
0.488026 0.079343 0.812388 103 96 78
0.491614 0.078845 0.794073 23 21 24
0.488492 0.077763 0.808435 35 34 30
0.498466 0.078926 0.785273 29 28 26
0.488425 0.078428 0.794798 32 31 29
0.494769 0.080009 0.793723 30 29 27
0.494372 0.086587 0.767654 133 123 62
0.504385 0.081175 0.754593 154 146 71
0.507749 0.082092 0.753245 132 122 60
0.490584 0.084923 0.758627 128 115 60
0.503145 0.080926 0.763252 118 111 43
0.494152 0.086422 0.770237 129 116 63
0.506516 0.08259 0.780502 29 28 26
0.488576 0.083924 0.760231 144 132 72
0.490839 0.085088 0.770046 143 126 72
0.495171 0.086671 0.779641 129 120 65
0.491933 0.085421 0.771492 136 126 67
0.497465 0.087169 0.755926 127 116 60
0.494114 0.086086 0.777062 139 127 67
0.499371 0.087753 0.75541 125 114 58
0.491729 0.085004 0.75173 142 132 71
0.496753 0.087004 0.752599 154 141 73
0.492382 0.085837 0.764438 137 125 67
0.489367 0.084257 0.761388 135 123 63
0.496507 0.087087 0.772369 166 151 94
0.504102 0.081259 0.772718 26 25 23
0.491899 0.085172 0.781199 136 124 64
0.504651 0.081343 0.764459 91 83 44
0.49863 0.087585 0.756326 126 116 54
0.488952 0.084173 0.776579 138 128 66
0.494068 0.086005 0.753812 167 151 125
0.493444 0.086005 0.77948 163 150 118
0.489943 0.08459 0.771542 139 129 70
0.508123 0.082174 0.769696 32 30 33
0.497823 0.087669 0.762828 129 116 61
0.490384 0.084923 0.773465 159 145 116
0.494676 0.086005 0.750198 122 112 53
0.488127 0.083589 0.753154 142 132 71
0.489551 0.084755 0.767795 139 127 67
0.495196 0.086422 0.780866 134 124 63
0.491237 0.085255 0.762846 162 148 121
0.510546 0.083007 0.761104 137 127 66
0.509447 0.08259 0.751896 143 135 62
0.508881 0.082425 0.753536 159 151 79
0.514634 0.084089 0.751371 115 108 54
0.508531 0.081175 0.764093 29 28 26
0.511287 0.082842 0.768913 28 27 25
0.510446 0.08334 0.777281 27 26 24
0.51654 0.083924 0.769071 26 25 23
0.512752 0.083256 0.77385 27 26 24
0.508781 0.081759 0.773043 34 33 31
0.513277 0.083007 0.770478 28 27 25
0.516124 0.08459 0.750888 132 124 62
0.516599 0.084755 0.753719 125 118 64
0.521523 0.08617 0.751221 104 102 54
0.52402 0.087087 0.758115 107 103 55
0.520623 0.085753 0.765408 23 22 20
0.519325 0.085588 0.751771 107 101 53
0.522014 0.08692 0.775715 32 29 24
0.523829 0.087169 0.76878 25 23 26
0.523754 0.086755 0.771169 28 27 25
0.521206 0.086671 0.778371 133 128 64
0.520124 0.086338 0.778096 120 113 59
0.525136 0.087837 0.777106 120 113 67
0.523462 0.085753 0.768638 29 30 25
0.518908 0.085504 0.772835 25 24 22
0.49147 0.085339 0.811159 161 148 114
0.505872 0.083007 0.810621 169 158 102
0.495891 0.08742 0.798546 162 149 117
0.504851 0.082674 0.804314 37 36 34
0.494168 0.086503 0.795099 164 151 119
0.504069 0.081925 0.791084 119 111 49
0.491067 0.084923 0.784413 145 133 75
0.502912 0.082092 0.808468 33 33 25
0.488569 0.083924 0.789159 135 124 68
0.494251 0.086254 0.809252 142 128 65
0.497061 0.08742 0.806734 136 126 65
0.494559 0.086587 0.797096 157 142 75
0.499573 0.080758 0.805246 32 30 31
0.50262 0.081259 0.783691 30 29 27
0.493481 0.086005 0.794012 140 128 68
0.501363 0.081343 0.802857 38 36 37
0.493423 0.085753 0.781924 142 130 72
0.497848 0.08742 0.782302 156 141 76
0.503436 0.081759 0.7926 129 121 59
0.503852 0.082341 0.809217 151 141 70
0.491624 0.085088 0.786894 138 127 65
0.499973 0.080677 0.79802 144 134 75
0.508057 0.083007 0.787854 132 122 60
0.491391 0.085172 0.793072 130 117 64
0.490675 0.084923 0.793979 136 124 66
0.492107 0.085339 0.810014 140 130 71
0.506042 0.082674 0.803398 35 34 30
0.493594 0.086254 0.796271 139 126 73
