ply
format ascii 1.0
comment PCL generated
element vertex 1239
property float x
property float y
property float z
property uchar red
property uchar green
property uchar blue
element camera 0
property float view_px
property float view_py
property float view_pz
property float x_axisx
property float x_axisy
property float x_axisz
property float y_axisx
property float y_axisy
property float y_axisz
property float z_axisx
property float z_axisy
property float z_axisz
property float focal
property float scalex
property float scaley
property float centerx
property float centery
property int viewportx
property int viewporty
property float k1
property float k2
end_header
0.519518 0.218034 0.816667 230 227 216
0.519518 0.218034 0.821447 229 224 214
0.524298 0.218034 0.816667 229 225 213
0.524298 0.218034 0.821447 230 227 217
0.519518 0.218034 0.826227 232 229 219
0.519518 0.218034 0.831007 230 225 216
0.524298 0.218034 0.826227 231 227 217
0.524298 0.218034 0.831007 230 227 216
0.529078 0.208474 0.816667 186 176 102
0.529078 0.208474 0.821447 207 196 127
0.533858 0.208474 0.816667 192 182 113
0.533858 0.208474 0.821447 185 176 110
0.529078 0.208474 0.831007 199 186 92
0.533858 0.208474 0.826227 201 192 128
0.533858 0.208474 0.831007 171 162 103
0.529078 0.218034 0.816667 230 226 216
0.529078 0.218034 0.821447 228 224 213
0.533858 0.218034 0.816667 226 223 210
0.533858 0.218034 0.821447 228 226 214
0.529078 0.218034 0.826227 232 229 220
0.529078 0.218034 0.831007 230 226 216
0.533858 0.218034 0.826227 226 223 209
0.533858 0.218034 0.831007 224 220 206
0.533858 0.222814 0.826227 225 221 209
0.533858 0.222814 0.831007 224 219 205
0.519518 0.213254 0.835787 233 229 219
0.519518 0.213254 0.840567 227 223 212
0.524298 0.208474 0.840567 215 205 134
0.519518 0.213254 0.845347 224 219 205
0.519518 0.213254 0.850127 233 228 216
0.519518 0.218034 0.835787 226 222 210
0.519518 0.218034 0.840567 223 218 205
0.524298 0.218034 0.835787 232 229 219
0.524298 0.218034 0.840567 224 220 208
0.519518 0.218034 0.845347 232 228 216
0.519518 0.218034 0.850127 227 224 209
0.524298 0.218034 0.845347 227 223 211
0.524298 0.218034 0.850127 226 222 208
0.529078 0.208474 0.835787 215 206 127
0.529078 0.208474 0.840567 224 216 156
0.533858 0.208474 0.835787 200 192 128
0.533858 0.208474 0.840567 192 182 111
0.529078 0.208474 0.845347 228 223 168
0.533858 0.208474 0.845347 188 180 118
0.533858 0.208474 0.850127 201 191 125
0.529078 0.218034 0.835787 227 223 212
0.529078 0.218034 0.840567 229 225 213
0.533858 0.218034 0.835787 228 225 213
0.533858 0.218034 0.840567 224 220 208
0.529078 0.218034 0.845347 222 217 205
0.529078 0.218034 0.850127 226 221 210
0.533858 0.218034 0.845347 230 227 215
0.533858 0.218034 0.850127 230 226 215
0.500398 0.194134 0.854907 79 73 41
0.500398 0.194134 0.859687 92 87 51
0.505178 0.194134 0.854907 48 44 17
0.505178 0.194134 0.859687 46 45 27
0.500398 0.194134 0.864467 96 91 55
0.500398 0.194134 0.869247 103 98 59
0.505178 0.194134 0.864467 184 177 125
0.505178 0.194134 0.869247 108 102 63
0.500398 0.198914 0.854907 136 126 68
0.500398 0.198914 0.859687 184 175 103
0.505178 0.198914 0.854907 186 177 112
0.505178 0.198914 0.859687 165 157 100
0.500398 0.198914 0.864467 177 166 99
0.500398 0.198914 0.869247 147 138 80
0.505178 0.198914 0.864467 145 137 75
0.505178 0.198914 0.869247 172 163 100
0.509958 0.194134 0.854907 38 30 11
0.509958 0.198914 0.854907 161 154 97
0.509958 0.198914 0.859687 134 128 84
0.514738 0.198914 0.854907 121 112 67
0.514738 0.198914 0.859687 106 101 59
0.514738 0.203694 0.854907 196 187 129
0.514738 0.203694 0.859687 193 183 111
0.509958 0.198914 0.864467 133 124 64
0.509958 0.198914 0.869247 160 151 89
0.514738 0.198914 0.864467 131 122 72
0.514738 0.198914 0.869247 178 167 99
0.514738 0.203694 0.864467 134 124 70
0.500398 0.194134 0.874027 22 23 9
0.500398 0.194134 0.878807 165 156 87
0.500398 0.194134 0.883587 107 100 58
0.500398 0.194134 0.888367 93 86 57
0.500398 0.198914 0.874027 161 153 93
0.500398 0.198914 0.878807 169 160 97
0.505178 0.198914 0.874027 171 161 96
0.505178 0.198914 0.878807 173 164 98
0.500398 0.198914 0.883587 137 129 70
0.500398 0.198914 0.888367 128 120 67
0.505178 0.198914 0.883587 161 151 83
0.505178 0.198914 0.888367 122 114 66
0.509958 0.198914 0.874027 162 153 91
0.509958 0.198914 0.878807 183 174 97
0.514738 0.198914 0.874027 198 188 114
0.514738 0.198914 0.878807 177 167 93
0.514738 0.203694 0.874027 80 76 47
0.509958 0.198914 0.883587 163 153 80
0.509958 0.198914 0.888367 148 140 76
0.509958 0.203694 0.883587 187 176 86
0.509958 0.203694 0.888367 197 184 92
0.514738 0.198914 0.883587 176 167 95
0.514738 0.198914 0.888367 155 146 83
0.500398 0.208474 0.854907 228 225 211
0.500398 0.208474 0.859687 229 224 211
0.505178 0.208474 0.854907 229 225 212
0.505178 0.208474 0.859687 227 223 209
0.505178 0.213254 0.854907 220 216 200
0.505178 0.213254 0.859687 228 225 213
0.500398 0.208474 0.864467 224 218 204
0.500398 0.208474 0.869247 225 220 206
0.505178 0.208474 0.864467 229 225 212
0.505178 0.208474 0.869247 223 218 205
0.505178 0.213254 0.864467 231 228 215
0.505178 0.213254 0.869247 213 207 191
0.509958 0.213254 0.854907 231 227 215
0.509958 0.213254 0.859687 228 224 211
0.514738 0.213254 0.854907 225 221 208
0.514738 0.213254 0.859687 225 221 207
0.509958 0.213254 0.864467 224 219 207
0.509958 0.213254 0.869247 222 219 205
0.514738 0.213254 0.864467 228 224 212
0.514738 0.213254 0.869247 220 215 203
0.500398 0.208474 0.874027 225 220 207
0.500398 0.208474 0.878807 214 210 198
0.505178 0.208474 0.874027 221 216 204
0.505178 0.208474 0.878807 216 211 198
0.500398 0.208474 0.883587 132 125 125
0.500398 0.208474 0.888367 132 126 127
0.505178 0.208474 0.883587 145 138 135
0.505178 0.208474 0.888367 128 120 122
0.509958 0.208474 0.874027 231 227 216
0.509958 0.208474 0.878807 192 187 171
0.509958 0.213254 0.874027 223 218 204
0.509958 0.213254 0.878807 220 215 200
0.514738 0.213254 0.874027 224 219 206
0.514738 0.213254 0.878807 224 219 205
0.509958 0.208474 0.883587 155 148 139
0.509958 0.208474 0.888367 137 131 126
0.509958 0.213254 0.883587 198 194 176
0.509958 0.213254 0.888367 186 180 164
0.514738 0.213254 0.883587 225 221 208
0.514738 0.213254 0.888367 227 222 210
0.519518 0.198914 0.854907 43 40 13
0.519518 0.198914 0.859687 67 61 32
0.519518 0.203694 0.854907 197 188 116
0.519518 0.203694 0.859687 162 154 90
0.524298 0.198914 0.854907 49 42 16
0.524298 0.203694 0.854907 145 138 89
0.524298 0.203694 0.859687 139 131 77
0.519518 0.198914 0.864467 108 100 72
0.519518 0.203694 0.864467 140 130 69
0.519518 0.203694 0.869247 194 185 117
0.524298 0.203694 0.864467 144 134 79
0.524298 0.203694 0.869247 182 172 103
0.529078 0.203694 0.854907 148 140 84
0.529078 0.203694 0.859687 170 161 105
0.533858 0.203694 0.854907 129 122 68
0.533858 0.203694 0.859687 158 149 88
0.529078 0.203694 0.864467 156 146 87
0.529078 0.203694 0.869247 181 171 109
0.533858 0.203694 0.864467 176 165 104
0.533858 0.203694 0.869247 174 165 110
0.519518 0.198914 0.878807 179 169 94
0.519518 0.203694 0.874027 182 172 111
0.519518 0.203694 0.878807 184 174 104
0.524298 0.203694 0.874027 177 167 101
0.524298 0.203694 0.878807 173 163 93
0.519518 0.198914 0.883587 175 165 90
0.519518 0.198914 0.888367 158 148 88
0.519518 0.203694 0.883587 166 156 86
0.519518 0.203694 0.888367 186 178 103
0.524298 0.203694 0.883587 167 158 85
0.524298 0.203694 0.888367 162 152 85
0.529078 0.203694 0.874027 184 174 105
0.529078 0.203694 0.878807 169 160 93
0.533858 0.203694 0.874027 183 173 102
0.533858 0.203694 0.878807 166 158 86
0.529078 0.203694 0.883587 159 150 80
0.529078 0.203694 0.888367 162 152 79
0.533858 0.203694 0.883587 154 146 73
0.533858 0.203694 0.888367 154 144 77
0.519518 0.213254 0.854907 227 222 209
0.519518 0.213254 0.859687 223 219 206
0.519518 0.213254 0.864467 225 220 209
0.519518 0.213254 0.869247 224 219 207
0.524298 0.213254 0.869247 223 219 207
0.519518 0.218034 0.854907 232 228 216
0.519518 0.218034 0.859687 226 221 209
0.524298 0.218034 0.854907 223 219 205
0.524298 0.218034 0.859687 226 222 211
0.519518 0.218034 0.864467 221 217 205
0.519518 0.218034 0.869247 224 220 208
0.524298 0.218034 0.864467 221 217 205
0.524298 0.218034 0.869247 219 215 204
0.533858 0.208474 0.854907 188 179 112
0.533858 0.208474 0.859687 172 162 90
0.533858 0.208474 0.864467 178 167 97
0.533858 0.208474 0.869247 197 187 114
0.529078 0.218034 0.854907 225 221 208
0.529078 0.218034 0.859687 227 223 211
0.533858 0.218034 0.854907 228 224 213
0.533858 0.218034 0.859687 226 222 210
0.529078 0.218034 0.864467 218 213 203
0.529078 0.218034 0.869247 219 214 203
0.533858 0.218034 0.864467 223 219 206
0.533858 0.218034 0.869247 222 217 206
0.519518 0.213254 0.874027 212 207 196
0.519518 0.213254 0.878807 222 218 206
0.524298 0.213254 0.878807 222 218 207
0.519518 0.213254 0.883587 229 225 214
0.519518 0.213254 0.888367 220 216 202
0.524298 0.213254 0.883587 228 225 214
0.524298 0.213254 0.888367 228 224 214
0.524298 0.218034 0.874027 207 202 192
0.524298 0.218034 0.878807 181 174 166
0.524298 0.218034 0.883587 157 149 140
0.524298 0.218034 0.888367 206 200 190
0.533858 0.208474 0.874027 184 174 102
0.533858 0.208474 0.878807 175 165 89
0.533858 0.208474 0.883587 168 158 76
0.533858 0.208474 0.888367 131 122 70
0.529078 0.218034 0.874027 225 220 209
0.529078 0.218034 0.878807 135 127 126
0.533858 0.218034 0.874027 193 187 179
0.533858 0.218034 0.878807 136 129 131
0.529078 0.218034 0.883587 133 125 123
0.529078 0.218034 0.888367 153 146 136
0.533858 0.218034 0.883587 139 132 136
0.533858 0.218034 0.888367 177 171 166
0.538638 0.203694 0.816667 194 184 110
0.538638 0.203694 0.821447 131 121 54
0.543418 0.203694 0.816667 150 138 62
0.538638 0.203694 0.850127 42 42 16
0.538638 0.208474 0.816667 182 173 109
0.538638 0.208474 0.821447 183 174 107
0.538638 0.213254 0.816667 152 144 86
0.543418 0.208474 0.816667 132 123 64
0.543418 0.208474 0.821447 138 131 72
0.543418 0.213254 0.816667 143 135 96
0.543418 0.213254 0.821447 171 165 125
0.538638 0.208474 0.826227 180 171 109
0.538638 0.208474 0.831007 180 172 115
0.543418 0.208474 0.826227 131 124 63
0.543418 0.208474 0.831007 165 157 97
0.543418 0.213254 0.831007 124 116 54
0.538638 0.222814 0.816667 227 223 209
0.538638 0.222814 0.821447 227 223 209
0.543418 0.222814 0.816667 228 225 213
0.543418 0.222814 0.821447 225 221 209
0.538638 0.218034 0.831007 228 222 210
0.538638 0.222814 0.826227 226 223 210
0.538638 0.222814 0.831007 224 220 207
0.543418 0.222814 0.826227 227 223 211
0.543418 0.222814 0.831007 221 217 204
0.548198 0.213254 0.816667 115 107 59
0.548198 0.213254 0.821447 118 111 67
0.552978 0.213254 0.816667 115 109 60
0.552978 0.213254 0.821447 111 106 59
0.548198 0.208474 0.826227 108 101 57
0.548198 0.208474 0.831007 115 107 58
0.548198 0.213254 0.826227 114 107 60
0.548198 0.213254 0.831007 110 104 52
0.552978 0.213254 0.826227 111 105 59
0.552978 0.213254 0.831007 125 119 64
0.548198 0.222814 0.821447 232 228 219
0.552978 0.222814 0.821447 224 220 209
0.548198 0.222814 0.826227 227 224 214
0.548198 0.222814 0.831007 222 218 207
0.538638 0.208474 0.835787 193 183 115
0.538638 0.208474 0.840567 203 194 122
0.543418 0.208474 0.835787 174 164 92
0.543418 0.208474 0.840567 190 180 109
0.538638 0.208474 0.845347 187 178 117
0.538638 0.208474 0.850127 143 135 80
0.543418 0.208474 0.845347 180 171 98
0.543418 0.208474 0.850127 119 112 53
0.538638 0.218034 0.835787 224 220 207
0.538638 0.218034 0.840567 224 221 208
0.538638 0.222814 0.835787 224 221 207
0.538638 0.222814 0.840567 216 211 199
0.543418 0.222814 0.835787 226 221 210
0.543418 0.222814 0.840567 224 220 206
0.538638 0.218034 0.845347 225 222 208
0.538638 0.218034 0.850127 227 223 211
0.538638 0.222814 0.845347 227 223 213
0.538638 0.222814 0.850127 228 224 214
0.543418 0.222814 0.845347 221 216 204
0.543418 0.222814 0.850127 189 183 168
0.548198 0.208474 0.835787 110 103 51
0.548198 0.208474 0.840567 204 193 113
0.548198 0.213254 0.835787 137 130 81
0.548198 0.213254 0.840567 122 115 61
0.552978 0.213254 0.835787 122 115 62
0.552978 0.213254 0.840567 130 122 62
0.548198 0.208474 0.845347 104 99 68
0.548198 0.208474 0.850127 75 71 38
0.548198 0.213254 0.845347 123 116 57
0.548198 0.213254 0.850127 105 97 48
0.552978 0.208474 0.850127 55 51 36
0.552978 0.213254 0.845347 117 109 62
0.552978 0.213254 0.850127 82 76 48
0.548198 0.222814 0.840567 223 219 208
0.552978 0.222814 0.835787 226 222 211
0.548198 0.222814 0.845347 225 221 210
0.548198 0.222814 0.850127 154 148 130
0.552978 0.222814 0.845347 226 222 211
0.552978 0.222814 0.850127 228 222 212
0.557758 0.213254 0.816667 116 111 62
0.557758 0.213254 0.821447 124 118 65
0.562538 0.213254 0.816667 87 79 40
0.562538 0.213254 0.821447 77 72 40
0.557758 0.213254 0.826227 112 107 57
0.557758 0.213254 0.831007 119 113 60
0.562538 0.213254 0.826227 80 71 38
0.562538 0.213254 0.831007 82 76 42
0.557758 0.218034 0.816667 116 109 61
0.557758 0.218034 0.821447 123 117 63
0.557758 0.222814 0.816667 214 210 198
0.557758 0.222814 0.821447 206 201 193
0.562538 0.218034 0.816667 99 94 52
0.562538 0.218034 0.821447 103 97 52
0.562538 0.222814 0.816667 186 180 145
0.562538 0.222814 0.821447 189 184 150
0.557758 0.218034 0.826227 90 85 41
0.557758 0.218034 0.831007 141 135 71
0.557758 0.222814 0.826227 221 216 205
0.557758 0.222814 0.831007 226 222 211
0.562538 0.218034 0.826227 95 89 46
0.562538 0.218034 0.831007 114 108 60
0.562538 0.222814 0.826227 186 179 149
0.562538 0.222814 0.831007 186 179 133
0.567318 0.213254 0.816667 85 80 46
0.567318 0.213254 0.821447 83 77 43
0.572098 0.213254 0.816667 109 102 69
0.567318 0.213254 0.826227 86 78 42
0.567318 0.213254 0.831007 90 81 49
0.572098 0.213254 0.826227 98 90 54
0.572098 0.213254 0.831007 93 86 52
0.567318 0.218034 0.816667 91 87 53
0.567318 0.218034 0.821447 73 69 42
0.567318 0.222814 0.816667 159 155 118
0.567318 0.222814 0.821447 163 159 129
0.572098 0.218034 0.816667 132 128 86
0.572098 0.218034 0.821447 128 122 83
0.572098 0.222814 0.816667 188 185 166
0.572098 0.222814 0.821447 175 171 147
0.567318 0.218034 0.826227 78 74 45
0.567318 0.218034 0.831007 73 69 44
0.567318 0.222814 0.826227 155 151 113
0.567318 0.222814 0.831007 155 150 120
0.572098 0.218034 0.826227 157 151 108
0.572098 0.218034 0.831007 160 153 111
0.572098 0.222814 0.826227 170 166 138
0.572098 0.222814 0.831007 164 160 135
0.557758 0.213254 0.835787 123 117 64
0.557758 0.213254 0.840567 113 108 60
0.562538 0.213254 0.835787 76 71 39
0.562538 0.213254 0.840567 64 59 36
0.557758 0.213254 0.845347 96 90 51
0.557758 0.213254 0.850127 64 60 37
0.562538 0.213254 0.845347 47 43 18
0.562538 0.213254 0.850127 59 55 32
0.557758 0.218034 0.835787 126 123 71
0.562538 0.218034 0.835787 95 89 45
0.562538 0.218034 0.840567 118 110 58
0.562538 0.222814 0.835787 178 172 135
0.562538 0.222814 0.840567 176 169 141
0.557758 0.218034 0.845347 92 92 58
0.557758 0.222814 0.845347 226 222 211
0.562538 0.218034 0.845347 121 115 65
0.562538 0.218034 0.850127 94 89 53
0.562538 0.222814 0.845347 180 175 155
0.562538 0.222814 0.850127 194 188 174
0.567318 0.213254 0.835787 89 83 51
0.567318 0.213254 0.840567 45 41 23
0.572098 0.213254 0.835787 81 74 41
0.572098 0.213254 0.840567 74 68 32
0.567318 0.213254 0.845347 58 52 27
0.567318 0.213254 0.850127 62 57 30
0.572098 0.213254 0.845347 68 62 30
0.572098 0.213254 0.850127 91 83 47
0.567318 0.218034 0.835787 92 87 49
0.567318 0.218034 0.840567 83 77 39
0.567318 0.222814 0.835787 163 157 118
0.567318 0.222814 0.840567 169 164 122
0.572098 0.218034 0.840567 90 85 57
0.572098 0.222814 0.835787 178 174 141
0.572098 0.222814 0.840567 162 158 121
0.567318 0.218034 0.845347 80 76 41
0.567318 0.218034 0.850127 89 84 49
0.567318 0.222814 0.845347 174 168 116
0.567318 0.222814 0.850127 156 149 105
0.572098 0.218034 0.845347 53 50 30
0.572098 0.218034 0.850127 106 102 75
0.572098 0.222814 0.845347 141 137 105
0.572098 0.222814 0.850127 149 144 110
0.538638 0.203694 0.854907 69 64 21
0.538638 0.203694 0.878807 118 112 96
0.538638 0.208474 0.854907 159 151 91
0.538638 0.208474 0.859687 160 149 85
0.543418 0.208474 0.854907 171 163 109
0.543418 0.208474 0.859687 136 128 71
0.538638 0.208474 0.864467 179 169 101
0.538638 0.208474 0.869247 190 181 110
0.543418 0.208474 0.864467 195 184 105
0.543418 0.208474 0.869247 191 181 109
0.538638 0.218034 0.854907 227 223 212
0.538638 0.222814 0.854907 224 220 208
0.538638 0.222814 0.859687 225 222 209
0.543418 0.222814 0.854907 222 218 206
0.543418 0.222814 0.859687 223 219 207
0.538638 0.218034 0.864467 221 216 205
0.538638 0.218034 0.869247 221 217 204
0.538638 0.222814 0.864467 217 214 201
0.538638 0.222814 0.869247 219 215 204
0.543418 0.222814 0.864467 220 215 202
0.543418 0.222814 0.869247 221 217 206
0.548198 0.208474 0.854907 137 128 67
0.548198 0.208474 0.859687 147 138 75
0.548198 0.213254 0.854907 139 132 87
0.548198 0.213254 0.859687 139 131 80
0.552978 0.213254 0.854907 104 99 58
0.552978 0.213254 0.859687 104 99 51
0.548198 0.208474 0.864467 177 168 103
0.548198 0.208474 0.869247 179 170 98
0.548198 0.213254 0.864467 132 124 62
0.548198 0.213254 0.869247 153 145 93
0.552978 0.213254 0.864467 119 112 58
0.552978 0.213254 0.869247 115 108 54
0.548198 0.222814 0.854907 222 217 206
0.548198 0.222814 0.859687 217 213 202
0.552978 0.222814 0.859687 220 215 204
0.548198 0.222814 0.864467 218 213 200
0.548198 0.222814 0.869247 221 216 204
0.552978 0.222814 0.864467 223 218 207
0.552978 0.222814 0.869247 223 218 206
0.538638 0.208474 0.874027 177 167 92
0.538638 0.208474 0.878807 156 147 78
0.543418 0.208474 0.874027 172 163 86
0.543418 0.208474 0.878807 155 145 75
0.538638 0.208474 0.883587 147 138 81
0.538638 0.208474 0.888367 143 135 74
0.543418 0.208474 0.883587 156 146 81
0.543418 0.208474 0.888367 148 140 87
0.538638 0.218034 0.874027 166 159 152
0.538638 0.218034 0.878807 137 130 132
0.538638 0.222814 0.874027 169 160 156
0.538638 0.222814 0.878807 132 126 128
0.543418 0.222814 0.874027 151 144 140
0.543418 0.222814 0.878807 132 125 126
0.538638 0.218034 0.883587 153 147 151
0.538638 0.218034 0.888367 161 154 155
0.538638 0.222814 0.883587 121 115 120
0.538638 0.222814 0.888367 157 149 149
0.543418 0.222814 0.883587 144 136 141
0.543418 0.222814 0.888367 123 116 119
0.548198 0.208474 0.874027 158 149 81
0.548198 0.208474 0.878807 143 134 75
0.548198 0.213254 0.874027 174 163 80
0.548198 0.213254 0.878807 146 139 68
0.552978 0.213254 0.874027 127 119 61
0.552978 0.213254 0.878807 118 112 57
0.548198 0.208474 0.883587 145 137 84
0.548198 0.208474 0.888367 121 114 61
0.548198 0.213254 0.883587 109 104 66
0.552978 0.208474 0.883587 124 119 64
0.552978 0.208474 0.888367 95 89 45
0.552978 0.213254 0.883587 127 121 67
0.552978 0.213254 0.888367 114 107 63
0.548198 0.222814 0.874027 142 134 124
0.548198 0.222814 0.878807 127 119 119
0.552978 0.222814 0.874027 201 196 183
0.552978 0.222814 0.878807 188 183 173
0.548198 0.222814 0.883587 129 120 123
0.548198 0.222814 0.888367 131 122 126
0.552978 0.222814 0.883587 168 162 155
0.552978 0.222814 0.888367 162 158 150
0.557758 0.213254 0.854907 95 90 52
0.557758 0.213254 0.859687 111 104 54
0.562538 0.213254 0.854907 95 91 51
0.562538 0.213254 0.859687 105 99 53
0.557758 0.213254 0.864467 114 108 54
0.557758 0.213254 0.869247 119 110 60
0.562538 0.213254 0.864467 129 122 64
0.562538 0.213254 0.869247 115 108 57
0.557758 0.222814 0.854907 204 198 177
0.557758 0.222814 0.859687 220 216 205
0.562538 0.218034 0.854907 110 105 60
0.562538 0.218034 0.859687 112 107 60
0.562538 0.222814 0.854907 200 194 178
0.557758 0.222814 0.869247 221 217 207
0.562538 0.218034 0.864467 122 116 62
0.562538 0.218034 0.869247 126 120 65
0.562538 0.222814 0.864467 217 210 200
0.562538 0.222814 0.869247 218 214 205
0.567318 0.213254 0.854907 88 80 44
0.567318 0.213254 0.859687 87 81 45
0.572098 0.213254 0.854907 88 80 45
0.572098 0.213254 0.859687 91 84 47
0.567318 0.213254 0.864467 98 90 53
0.567318 0.213254 0.869247 83 76 42
0.572098 0.213254 0.864467 89 83 47
0.572098 0.213254 0.869247 91 83 46
0.567318 0.218034 0.854907 88 83 49
0.567318 0.218034 0.859687 93 88 45
0.567318 0.222814 0.854907 119 113 83
0.567318 0.222814 0.859687 127 121 77
0.572098 0.218034 0.854907 34 33 22
0.572098 0.218034 0.859687 34 33 23
0.572098 0.222814 0.854907 147 143 120
0.572098 0.222814 0.859687 156 151 121
0.567318 0.218034 0.864467 93 87 48
0.567318 0.218034 0.869247 114 109 64
0.567318 0.222814 0.864467 156 150 123
0.567318 0.222814 0.869247 78 72 34
0.572098 0.218034 0.864467 97 92 63
0.572098 0.218034 0.869247 72 67 34
0.572098 0.222814 0.864467 152 147 109
0.572098 0.222814 0.869247 146 141 101
0.557758 0.213254 0.874027 135 128 71
0.557758 0.213254 0.878807 108 102 49
0.562538 0.213254 0.874027 121 114 62
0.562538 0.213254 0.878807 120 113 62
0.557758 0.213254 0.883587 124 116 55
0.557758 0.213254 0.888367 109 103 51
0.562538 0.213254 0.883587 134 128 68
0.562538 0.213254 0.888367 114 107 60
0.557758 0.222814 0.874027 222 217 207
0.557758 0.222814 0.878807 223 220 213
0.562538 0.218034 0.874027 137 131 79
0.562538 0.218034 0.878807 129 121 64
0.562538 0.222814 0.878807 226 223 215
0.557758 0.222814 0.883587 223 220 211
0.557758 0.222814 0.888367 218 216 203
0.562538 0.218034 0.883587 119 109 58
0.562538 0.222814 0.888367 225 222 216
0.567318 0.213254 0.874027 89 82 44
0.567318 0.213254 0.878807 82 75 39
0.572098 0.213254 0.874027 90 85 45
0.572098 0.213254 0.878807 86 79 44
0.567318 0.213254 0.883587 77 70 36
0.567318 0.213254 0.888367 85 76 42
0.572098 0.213254 0.883587 77 68 37
0.572098 0.213254 0.888367 78 74 39
0.567318 0.218034 0.874027 105 99 57
0.567318 0.218034 0.878807 100 94 50
0.567318 0.222814 0.878807 213 208 197
0.572098 0.218034 0.874027 81 76 40
0.572098 0.218034 0.878807 82 77 43
0.572098 0.222814 0.874027 139 134 96
0.572098 0.222814 0.878807 125 120 79
0.567318 0.218034 0.883587 120 115 63
0.567318 0.218034 0.888367 116 110 59
0.567318 0.222814 0.888367 225 223 215
0.572098 0.218034 0.883587 85 80 43
0.572098 0.218034 0.888367 83 79 43
0.572098 0.222814 0.883587 111 106 62
0.572098 0.222814 0.888367 120 113 77
0.562538 0.227594 0.826227 222 218 207
0.562538 0.227594 0.831007 226 223 212
0.562538 0.227594 0.835787 227 224 213
0.562538 0.227594 0.840567 218 215 203
0.562538 0.227594 0.845347 225 222 214
0.562538 0.227594 0.850127 223 220 211
0.567318 0.227594 0.835787 215 210 195
0.567318 0.227594 0.840567 218 215 199
0.567318 0.227594 0.845347 208 204 184
0.567318 0.227594 0.850127 208 205 195
0.567318 0.227594 0.854907 195 191 181
0.567318 0.227594 0.859687 186 182 171
0.567318 0.227594 0.864467 176 173 163
0.567318 0.227594 0.869247 183 180 172
0.572098 0.227594 0.864467 180 176 165
0.572098 0.227594 0.869247 180 177 167
0.567318 0.227594 0.874027 192 190 180
0.567318 0.227594 0.878807 229 226 217
0.572098 0.227594 0.874027 200 196 176
0.572098 0.227594 0.878807 204 200 184
0.572098 0.227594 0.883587 208 205 188
0.572098 0.227594 0.888367 198 195 185
0.500398 0.194134 0.893147 108 101 58
0.500398 0.194134 0.897927 102 96 57
0.500398 0.194134 0.902707 75 70 42
0.500398 0.194134 0.907487 91 86 52
0.500398 0.198914 0.893147 105 99 61
0.500398 0.198914 0.897927 100 93 51
0.505178 0.198914 0.893147 117 109 62
0.505178 0.198914 0.897927 103 96 55
0.500398 0.198914 0.902707 99 92 50
0.500398 0.198914 0.907487 103 96 52
0.500398 0.203694 0.902707 232 227 216
0.500398 0.203694 0.907487 231 226 216
0.505178 0.198914 0.902707 96 90 55
0.505178 0.198914 0.907487 102 96 57
0.509958 0.198914 0.893147 136 128 71
0.509958 0.198914 0.897927 116 109 64
0.514738 0.198914 0.893147 139 129 70
0.514738 0.198914 0.897927 105 98 55
0.514738 0.203694 0.897927 159 149 88
0.509958 0.198914 0.902707 98 92 54
0.509958 0.198914 0.907487 103 96 56
0.514738 0.198914 0.902707 103 96 56
0.514738 0.198914 0.907487 101 94 54
0.500398 0.194134 0.912267 82 76 47
0.500398 0.194134 0.917047 96 91 55
0.500398 0.194134 0.921827 82 75 40
0.500398 0.194134 0.926607 87 81 40
0.500398 0.198914 0.912267 91 85 48
0.500398 0.198914 0.917047 66 60 33
0.500398 0.203694 0.912267 221 215 201
0.500398 0.203694 0.917047 188 179 149
0.505178 0.198914 0.912267 102 95 55
0.505178 0.198914 0.917047 98 91 53
0.500398 0.198914 0.921827 88 82 49
0.500398 0.198914 0.926607 89 83 47
0.500398 0.203694 0.921827 167 157 125
0.500398 0.203694 0.926607 122 114 94
0.505178 0.198914 0.921827 107 100 61
0.505178 0.198914 0.926607 99 93 55
0.509958 0.198914 0.912267 101 93 55
0.509958 0.198914 0.917047 99 92 54
0.514738 0.198914 0.912267 113 106 62
0.514738 0.198914 0.917047 99 93 52
0.509958 0.198914 0.921827 94 88 54
0.509958 0.198914 0.926607 97 90 55
0.514738 0.198914 0.921827 98 92 53
0.514738 0.198914 0.926607 96 89 53
0.500398 0.208474 0.893147 121 115 116
0.500398 0.208474 0.897927 150 142 138
0.505178 0.208474 0.893147 126 119 121
0.505178 0.208474 0.897927 136 129 129
0.500398 0.208474 0.902707 157 149 140
0.500398 0.208474 0.907487 184 177 167
0.505178 0.208474 0.902707 140 132 130
0.505178 0.208474 0.907487 152 145 137
0.509958 0.208474 0.893147 148 141 137
0.509958 0.208474 0.897927 143 135 135
0.509958 0.213254 0.893147 165 158 145
0.509958 0.213254 0.897927 141 132 120
0.514738 0.213254 0.893147 225 220 207
0.514738 0.213254 0.897927 219 213 200
0.509958 0.208474 0.902707 127 119 120
0.509958 0.208474 0.907487 148 140 131
0.509958 0.213254 0.902707 167 158 151
0.509958 0.213254 0.907487 157 150 142
0.514738 0.213254 0.902707 210 204 191
0.514738 0.213254 0.907487 206 201 188
0.500398 0.208474 0.912267 227 222 210
0.500398 0.208474 0.917047 222 217 204
0.505178 0.208474 0.912267 220 214 201
0.505178 0.208474 0.917047 221 214 200
0.500398 0.208474 0.921827 218 211 199
0.500398 0.208474 0.926607 183 176 168
0.505178 0.208474 0.921827 211 206 193
0.505178 0.208474 0.926607 148 141 136
0.509958 0.208474 0.912267 223 218 205
0.509958 0.208474 0.917047 226 221 209
0.509958 0.213254 0.912267 214 207 191
0.514738 0.213254 0.912267 221 216 203
0.514738 0.213254 0.917047 221 215 202
0.509958 0.208474 0.921827 218 212 200
0.509958 0.208474 0.926607 128 120 118
0.514738 0.208474 0.921827 229 223 211
0.514738 0.208474 0.926607 117 108 107
0.514738 0.213254 0.921827 191 184 173
0.514738 0.213254 0.926607 118 111 110
0.519518 0.198914 0.893147 160 151 80
0.519518 0.198914 0.897927 120 112 58
0.519518 0.203694 0.893147 157 148 81
0.519518 0.203694 0.897927 111 103 58
0.524298 0.203694 0.893147 151 141 77
0.524298 0.203694 0.897927 110 103 55
0.519518 0.198914 0.902707 102 96 59
0.519518 0.198914 0.907487 110 103 55
0.519518 0.203694 0.902707 112 104 59
0.519518 0.203694 0.907487 110 103 56
0.524298 0.203694 0.902707 100 93 53
0.524298 0.203694 0.907487 114 106 62
0.529078 0.203694 0.893147 132 123 64
0.529078 0.203694 0.897927 102 95 54
0.533858 0.203694 0.893147 121 114 60
0.533858 0.203694 0.897927 104 98 53
0.529078 0.203694 0.902707 102 96 58
0.529078 0.203694 0.907487 117 109 59
0.533858 0.203694 0.902707 97 91 53
0.533858 0.203694 0.907487 114 106 62
0.519518 0.198914 0.912267 117 109 63
0.519518 0.198914 0.917047 122 113 63
0.519518 0.203694 0.912267 98 91 53
0.519518 0.203694 0.917047 104 95 54
0.524298 0.203694 0.912267 103 97 55
0.524298 0.203694 0.917047 95 90 54
0.519518 0.198914 0.921827 117 109 62
0.519518 0.198914 0.926607 123 115 61
0.519518 0.203694 0.921827 125 116 59
0.524298 0.198914 0.926607 184 172 86
0.524298 0.203694 0.921827 115 106 57
0.524298 0.203694 0.926607 103 96 54
0.529078 0.203694 0.912267 114 106 63
0.529078 0.203694 0.917047 111 102 57
0.533858 0.203694 0.912267 99 91 51
0.533858 0.203694 0.917047 107 101 60
0.529078 0.203694 0.921827 102 95 54
0.529078 0.203694 0.926607 123 114 61
0.533858 0.203694 0.921827 100 93 58
0.533858 0.203694 0.926607 106 100 56
0.519518 0.213254 0.893147 222 219 206
0.519518 0.213254 0.897927 223 218 205
0.524298 0.213254 0.893147 229 225 215
0.524298 0.213254 0.897927 220 215 202
0.519518 0.213254 0.902707 230 225 214
0.519518 0.213254 0.907487 220 215 201
0.524298 0.213254 0.902707 226 221 208
0.524298 0.213254 0.907487 221 216 204
0.524298 0.218034 0.893147 224 220 209
0.524298 0.218034 0.897927 221 217 205
0.524298 0.218034 0.902707 215 209 196
0.524298 0.218034 0.907487 212 206 192
0.529078 0.218034 0.893147 215 210 200
0.529078 0.218034 0.897927 221 215 203
0.533858 0.218034 0.893147 223 218 207
0.533858 0.218034 0.897927 221 217 205
0.529078 0.218034 0.902707 218 214 200
0.529078 0.218034 0.907487 220 215 202
0.533858 0.218034 0.902707 219 214 201
0.533858 0.218034 0.907487 215 209 196
0.519518 0.213254 0.912267 225 220 208
0.519518 0.213254 0.917047 221 216 203
0.524298 0.213254 0.912267 222 217 204
0.524298 0.213254 0.917047 207 201 189
0.519518 0.213254 0.921827 194 188 177
0.519518 0.213254 0.926607 111 103 103
0.524298 0.213254 0.921827 181 174 165
0.524298 0.213254 0.926607 129 121 122
0.524298 0.218034 0.912267 218 215 200
0.524298 0.218034 0.917047 230 226 215
0.524298 0.218034 0.921827 210 203 193
0.524298 0.218034 0.926607 94 85 88
0.529078 0.218034 0.912267 221 217 204
0.529078 0.218034 0.917047 206 200 189
0.533858 0.218034 0.912267 211 206 193
0.533858 0.218034 0.917047 225 220 208
0.529078 0.218034 0.921827 160 152 147
0.529078 0.218034 0.926607 132 124 123
0.533858 0.218034 0.921827 133 124 121
0.533858 0.218034 0.926607 148 142 140
0.500398 0.194134 0.931387 96 90 46
0.500398 0.194134 0.936167 92 86 42
0.500398 0.194134 0.940947 96 89 46
0.500398 0.194134 0.945727 98 91 49
0.505178 0.194134 0.945727 78 72 38
0.500398 0.198914 0.931387 71 67 34
0.500398 0.198914 0.936167 81 75 40
0.500398 0.203694 0.931387 80 74 66
0.500398 0.203694 0.936167 99 92 84
0.505178 0.198914 0.931387 99 91 49
0.505178 0.198914 0.936167 92 86 47
0.500398 0.198914 0.940947 73 67 38
0.500398 0.198914 0.945727 26 26 7
0.500398 0.203694 0.940947 132 123 105
0.500398 0.203694 0.945727 186 176 150
0.505178 0.198914 0.940947 86 81 46
0.505178 0.198914 0.945727 72 67 37
0.505178 0.203694 0.940947 202 195 166
0.505178 0.203694 0.945727 164 154 121
0.509958 0.198914 0.931387 113 106 65
0.509958 0.198914 0.936167 135 127 74
0.514738 0.198914 0.931387 120 112 62
0.514738 0.198914 0.936167 150 141 84
0.509958 0.198914 0.940947 132 124 71
0.509958 0.198914 0.945727 148 140 73
0.514738 0.198914 0.940947 162 153 83
0.514738 0.198914 0.945727 156 147 84
0.500398 0.194134 0.950507 100 93 50
0.500398 0.194134 0.955287 79 73 40
0.505178 0.194134 0.955287 87 82 43
0.500398 0.194134 0.960067 97 90 47
0.500398 0.194134 0.964847 106 97 51
0.505178 0.194134 0.960067 93 86 45
0.505178 0.194134 0.964847 66 61 39
0.500398 0.198914 0.950507 52 48 30
0.500398 0.198914 0.955287 22 22 14
0.500398 0.203694 0.950507 203 196 175
0.500398 0.203694 0.955287 201 193 174
0.505178 0.198914 0.950507 65 60 33
0.505178 0.198914 0.955287 72 67 36
0.505178 0.203694 0.950507 177 166 135
0.505178 0.203694 0.955287 186 177 149
0.500398 0.203694 0.960067 209 202 187
0.500398 0.203694 0.964847 211 205 191
0.505178 0.198914 0.960067 72 67 37
0.505178 0.198914 0.964847 71 67 32
0.505178 0.203694 0.960067 182 171 138
0.505178 0.203694 0.964847 193 184 161
0.509958 0.198914 0.950507 136 127 73
0.509958 0.198914 0.955287 125 117 64
0.514738 0.198914 0.950507 168 159 94
0.514738 0.198914 0.955287 158 149 85
0.509958 0.198914 0.960067 120 113 62
0.509958 0.198914 0.964847 82 76 43
0.514738 0.198914 0.960067 131 121 62
0.514738 0.198914 0.964847 151 142 75
0.500398 0.208474 0.931387 91 85 85
0.505178 0.208474 0.931387 119 110 109
0.505178 0.208474 0.936167 141 134 132
0.505178 0.208474 0.940947 191 184 168
0.505178 0.208474 0.945727 216 210 190
0.509958 0.208474 0.931387 110 102 102
0.509958 0.208474 0.936167 121 113 105
0.514738 0.208474 0.931387 110 103 104
0.514738 0.208474 0.936167 143 135 126
0.514738 0.213254 0.931387 128 121 121
0.514738 0.213254 0.936167 98 91 87
0.509958 0.208474 0.940947 202 196 179
0.509958 0.208474 0.945727 208 203 184
0.514738 0.208474 0.940947 208 202 185
0.514738 0.208474 0.945727 218 212 196
0.514738 0.213254 0.940947 206 201 186
0.514738 0.213254 0.945727 204 199 180
0.505178 0.208474 0.950507 215 208 190
0.505178 0.208474 0.955287 203 197 180
0.505178 0.208474 0.960067 210 202 177
0.505178 0.208474 0.964847 203 194 166
0.509958 0.208474 0.950507 221 215 198
0.509958 0.208474 0.955287 215 210 192
0.514738 0.208474 0.950507 220 214 197
0.514738 0.208474 0.955287 219 214 197
0.514738 0.213254 0.950507 224 218 204
0.509958 0.208474 0.960067 217 211 194
0.509958 0.208474 0.964847 205 199 181
0.514738 0.208474 0.960067 215 209 193
0.514738 0.208474 0.964847 211 204 190
0.519518 0.198914 0.931387 132 123 66
0.519518 0.198914 0.936167 153 143 77
0.519518 0.203694 0.931387 155 143 69
0.519518 0.203694 0.936167 150 140 66
0.524298 0.198914 0.931387 190 178 94
0.524298 0.198914 0.936167 191 180 101
0.524298 0.203694 0.931387 139 130 69
0.524298 0.203694 0.936167 161 153 85
0.519518 0.198914 0.940947 159 150 86
0.519518 0.198914 0.945727 164 155 91
0.519518 0.203694 0.940947 145 136 67
0.524298 0.198914 0.940947 188 176 98
0.524298 0.198914 0.945727 180 169 93
0.524298 0.203694 0.940947 162 153 87
0.524298 0.203694 0.945727 166 156 88
0.529078 0.203694 0.931387 137 128 72
0.529078 0.203694 0.936167 158 148 81
0.533858 0.203694 0.931387 135 126 66
0.533858 0.203694 0.936167 136 128 73
0.529078 0.203694 0.940947 168 159 91
0.529078 0.203694 0.945727 164 154 90
0.533858 0.203694 0.940947 144 133 73
0.533858 0.203694 0.945727 159 150 84
0.519518 0.198914 0.950507 176 167 98
0.519518 0.198914 0.955287 180 171 97
0.524298 0.198914 0.950507 187 176 105
0.524298 0.198914 0.955287 164 155 94
0.524298 0.203694 0.950507 184 175 102
0.524298 0.203694 0.955287 172 164 93
0.519518 0.198914 0.960067 139 129 69
0.519518 0.198914 0.964847 160 150 83
0.524298 0.198914 0.960067 139 129 71
0.524298 0.198914 0.964847 174 165 91
0.524298 0.203694 0.960067 131 122 59
0.524298 0.203694 0.964847 165 156 88
0.529078 0.203694 0.950507 178 170 100
0.529078 0.203694 0.955287 177 166 96
0.533858 0.203694 0.950507 172 164 99
0.533858 0.203694 0.955287 161 151 85
0.529078 0.203694 0.960067 147 138 72
0.529078 0.203694 0.964847 172 164 92
0.533858 0.203694 0.960067 146 137 72
0.533858 0.203694 0.964847 170 162 90
0.519518 0.213254 0.931387 125 119 114
0.519518 0.213254 0.936167 128 120 107
0.524298 0.213254 0.931387 134 125 125
0.524298 0.213254 0.936167 158 150 139
0.519518 0.213254 0.940947 209 203 186
0.519518 0.213254 0.945727 220 214 198
0.524298 0.213254 0.940947 215 210 195
0.524298 0.213254 0.945727 210 205 188
0.529078 0.213254 0.931387 107 98 99
0.529078 0.213254 0.936167 153 146 132
0.529078 0.213254 0.940947 211 208 190
0.529078 0.213254 0.945727 206 201 184
0.529078 0.218034 0.931387 150 142 140
0.529078 0.218034 0.936167 195 189 174
0.533858 0.218034 0.931387 128 119 115
0.533858 0.218034 0.936167 191 186 171
0.529078 0.218034 0.940947 215 209 192
0.529078 0.218034 0.945727 212 207 190
0.533858 0.218034 0.940947 208 202 187
0.533858 0.218034 0.945727 217 211 196
0.519518 0.213254 0.950507 219 213 197
0.519518 0.213254 0.955287 220 215 198
0.524298 0.213254 0.950507 214 209 191
0.524298 0.213254 0.955287 216 210 192
0.519518 0.208474 0.960067 226 220 206
0.519518 0.208474 0.964847 188 182 164
0.519518 0.213254 0.960067 211 204 189
0.519518 0.213254 0.964847 200 193 176
0.524298 0.213254 0.960067 213 206 191
0.524298 0.213254 0.964847 201 194 179
0.529078 0.213254 0.950507 213 208 191
0.529078 0.213254 0.955287 218 212 196
0.529078 0.213254 0.960067 213 207 194
0.529078 0.213254 0.964847 204 197 183
0.533858 0.213254 0.964847 201 194 180
0.529078 0.218034 0.950507 221 215 201
0.529078 0.218034 0.955287 206 200 183
0.533858 0.218034 0.950507 213 207 191
0.533858 0.218034 0.955287 210 204 189
0.529078 0.218034 0.960067 201 195 183
0.533858 0.218034 0.960067 209 202 189
0.533858 0.218034 0.964847 199 192 178
0.538638 0.203694 0.897927 91 86 46
0.538638 0.203694 0.902707 87 82 44
0.538638 0.203694 0.912267 100 93 55
0.538638 0.203694 0.917047 111 104 61
0.538638 0.203694 0.921827 101 94 60
0.538638 0.203694 0.926607 131 121 68
0.538638 0.208474 0.893147 113 105 56
0.538638 0.208474 0.897927 104 97 57
0.543418 0.208474 0.893147 101 94 53
0.543418 0.208474 0.897927 117 108 63
0.538638 0.208474 0.902707 95 88 52
0.538638 0.208474 0.907487 102 95 57
0.543418 0.208474 0.902707 113 106 60
0.543418 0.208474 0.907487 101 94 58
0.538638 0.218034 0.893147 222 217 207
0.538638 0.218034 0.897927 221 216 205
0.538638 0.222814 0.893147 211 205 197
0.538638 0.222814 0.897927 201 194 186
0.543418 0.222814 0.893147 136 128 125
0.543418 0.222814 0.897927 160 151 147
0.538638 0.218034 0.902707 221 216 202
0.538638 0.218034 0.907487 222 217 202
0.543418 0.222814 0.902707 173 164 156
0.543418 0.222814 0.907487 192 186 175
0.548198 0.208474 0.893147 111 103 60
0.548198 0.208474 0.897927 118 111 69
0.552978 0.208474 0.893147 97 90 49
0.552978 0.208474 0.897927 113 107 65
0.552978 0.213254 0.893147 119 112 66
0.552978 0.213254 0.897927 114 108 64
0.548198 0.208474 0.902707 115 107 62
0.548198 0.208474 0.907487 108 100 63
0.552978 0.208474 0.902707 109 100 59
0.552978 0.208474 0.907487 96 91 51
0.552978 0.213254 0.902707 108 100 57
0.552978 0.213254 0.907487 128 119 67
0.548198 0.222814 0.893147 138 130 132
0.548198 0.222814 0.897927 129 122 122
0.552978 0.222814 0.893147 153 144 138
0.552978 0.222814 0.897927 140 132 127
0.548198 0.222814 0.902707 127 118 120
0.548198 0.222814 0.907487 138 129 126
0.552978 0.222814 0.902707 133 124 122
0.552978 0.222814 0.907487 124 114 112
0.538638 0.208474 0.912267 115 107 60
0.538638 0.208474 0.917047 115 106 60
0.543418 0.208474 0.912267 105 98 61
0.543418 0.208474 0.917047 110 102 60
0.538638 0.208474 0.921827 98 90 55
0.538638 0.208474 0.926607 141 133 72
0.543418 0.208474 0.921827 103 96 54
0.543418 0.208474 0.926607 130 122 68
0.538638 0.218034 0.912267 221 217 203
0.538638 0.218034 0.917047 214 210 196
0.543418 0.218034 0.917047 228 221 211
0.543418 0.222814 0.912267 205 198 189
0.543418 0.222814 0.917047 187 179 171
0.538638 0.218034 0.921827 119 110 108
0.538638 0.218034 0.926607 125 117 116
0.543418 0.218034 0.921827 166 160 162
0.543418 0.218034 0.926607 127 119 120
0.543418 0.222814 0.921827 155 148 148
0.543418 0.222814 0.926607 133 125 125
0.548198 0.208474 0.912267 120 112 64
0.548198 0.208474 0.917047 114 107 67
0.552978 0.208474 0.912267 108 102 65
0.552978 0.208474 0.917047 102 96 54
0.552978 0.213254 0.912267 130 123 76
0.552978 0.213254 0.917047 143 134 101
0.548198 0.208474 0.921827 101 95 60
0.548198 0.208474 0.926607 134 125 71
0.552978 0.208474 0.921827 110 104 62
0.552978 0.208474 0.926607 121 113 73
0.552978 0.213254 0.921827 152 142 85
0.552978 0.213254 0.926607 155 143 81
0.548198 0.222814 0.912267 146 138 134
0.548198 0.222814 0.917047 135 127 125
0.552978 0.222814 0.912267 124 114 115
0.552978 0.222814 0.917047 124 114 115
0.548198 0.222814 0.921827 139 131 131
0.548198 0.222814 0.926607 120 112 112
0.552978 0.222814 0.921827 124 114 114
0.552978 0.222814 0.926607 126 118 114
0.557758 0.213254 0.893147 115 108 56
0.557758 0.213254 0.897927 121 114 57
0.562538 0.213254 0.893147 112 106 59
0.562538 0.213254 0.897927 128 120 62
0.557758 0.213254 0.902707 114 107 58
0.557758 0.213254 0.907487 108 101 53
0.562538 0.213254 0.902707 118 111 59
0.562538 0.213254 0.907487 127 119 64
0.557758 0.222814 0.893147 215 211 202
0.557758 0.222814 0.897927 202 197 188
0.562538 0.222814 0.893147 214 211 203
0.557758 0.222814 0.902707 176 169 158
0.557758 0.222814 0.907487 148 139 131
0.562538 0.222814 0.902707 209 205 196
0.562538 0.222814 0.907487 208 204 194
0.567318 0.213254 0.893147 85 77 40
0.567318 0.213254 0.897927 100 93 50
0.572098 0.213254 0.893147 75 69 37
0.572098 0.213254 0.897927 72 66 35
0.567318 0.213254 0.902707 122 115 68
0.567318 0.213254 0.907487 127 120 65
0.572098 0.213254 0.902707 72 65 36
0.572098 0.213254 0.907487 74 68 36
0.567318 0.218034 0.893147 134 127 75
0.567318 0.218034 0.897927 122 115 64
0.572098 0.218034 0.893147 87 82 47
0.572098 0.218034 0.897927 90 85 50
0.572098 0.222814 0.893147 90 84 43
0.572098 0.222814 0.897927 120 112 86
0.567318 0.218034 0.902707 122 117 68
0.567318 0.218034 0.907487 128 122 69
0.567318 0.222814 0.902707 218 214 207
0.572098 0.218034 0.902707 106 100 58
0.572098 0.218034 0.907487 112 106 61
0.572098 0.222814 0.902707 158 151 121
0.572098 0.222814 0.907487 137 130 88
0.557758 0.213254 0.912267 117 111 61
0.557758 0.213254 0.917047 118 110 62
0.562538 0.213254 0.912267 119 111 61
0.562538 0.213254 0.917047 116 109 61
0.557758 0.213254 0.921827 105 97 55
0.557758 0.213254 0.926607 116 110 60
0.562538 0.213254 0.921827 105 99 58
0.562538 0.213254 0.926607 109 102 58
0.557758 0.222814 0.912267 152 146 138
0.557758 0.222814 0.917047 142 133 127
0.562538 0.218034 0.917047 171 160 93
0.562538 0.222814 0.917047 208 203 198
0.557758 0.222814 0.921827 131 122 120
0.557758 0.222814 0.926607 155 147 137
0.562538 0.222814 0.921827 202 198 189
0.562538 0.222814 0.926607 200 194 181
0.567318 0.213254 0.912267 116 110 61
0.567318 0.213254 0.917047 105 98 57
0.572098 0.213254 0.912267 67 62 33
0.572098 0.213254 0.917047 66 59 30
0.567318 0.213254 0.921827 112 106 59
0.567318 0.213254 0.926607 117 110 60
0.572098 0.213254 0.921827 70 63 34
0.572098 0.213254 0.926607 67 60 32
0.567318 0.218034 0.912267 139 131 76
0.567318 0.218034 0.917047 151 144 86
0.567318 0.222814 0.912267 211 205 196
0.572098 0.218034 0.912267 137 130 79
0.572098 0.218034 0.917047 123 117 67
0.572098 0.222814 0.912267 203 194 186
0.567318 0.218034 0.921827 141 134 75
0.567318 0.218034 0.926607 146 138 76
0.567318 0.222814 0.926607 190 183 170
0.572098 0.218034 0.921827 126 118 65
0.572098 0.218034 0.926607 146 138 74
0.572098 0.222814 0.921827 205 200 192
0.538638 0.203694 0.931387 139 131 71
0.538638 0.203694 0.936167 130 122 66
0.538638 0.203694 0.940947 159 149 81
0.538638 0.203694 0.945727 171 162 92
0.538638 0.203694 0.950507 177 168 91
0.538638 0.203694 0.955287 150 140 74
0.543418 0.203694 0.955287 105 99 51
0.538638 0.203694 0.960067 145 136 72
0.538638 0.203694 0.964847 156 147 78
0.543418 0.203694 0.960067 168 157 77
0.538638 0.208474 0.931387 167 158 86
0.538638 0.208474 0.936167 164 156 87
0.543418 0.208474 0.931387 152 143 84
0.543418 0.208474 0.936167 161 152 83
0.538638 0.208474 0.940947 139 132 78
0.543418 0.208474 0.940947 139 129 66
0.543418 0.208474 0.945727 174 165 104
0.538638 0.218034 0.931387 123 116 106
0.538638 0.218034 0.936167 210 204 191
0.543418 0.218034 0.931387 174 166 154
0.543418 0.218034 0.936167 212 206 193
0.543418 0.222814 0.931387 143 135 128
0.543418 0.222814 0.936167 210 204 191
0.538638 0.218034 0.940947 211 206 190
0.538638 0.218034 0.945727 215 209 195
0.543418 0.218034 0.940947 211 206 190
0.543418 0.218034 0.945727 212 206 191
0.543418 0.222814 0.940947 207 201 186
0.548198 0.208474 0.931387 157 149 82
0.548198 0.208474 0.936167 158 149 87
0.552978 0.208474 0.931387 150 142 77
0.552978 0.208474 0.936167 160 152 90
0.548198 0.208474 0.940947 180 171 102
0.548198 0.208474 0.945727 152 143 83
0.552978 0.208474 0.940947 161 152 80
0.552978 0.208474 0.945727 179 170 96
0.552978 0.213254 0.940947 171 163 124
0.548198 0.222814 0.931387 175 167 155
0.548198 0.222814 0.936167 211 205 192
0.552978 0.222814 0.931387 160 153 146
0.552978 0.222814 0.936167 210 205 192
0.548198 0.222814 0.940947 209 203 189
0.548198 0.222814 0.945727 213 207 193
0.552978 0.222814 0.940947 216 210 198
0.552978 0.222814 0.945727 214 208 195
0.538638 0.208474 0.950507 141 133 81
0.538638 0.208474 0.955287 192 185 131
0.543418 0.208474 0.950507 189 180 107
0.543418 0.208474 0.955287 141 132 70
0.538638 0.208474 0.960067 202 191 135
0.538638 0.208474 0.964847 164 154 80
0.543418 0.208474 0.960067 174 165 87
0.543418 0.208474 0.964847 178 170 93
0.538638 0.218034 0.950507 216 210 195
0.538638 0.218034 0.955287 216 209 195
0.543418 0.218034 0.950507 219 213 200
0.543418 0.218034 0.955287 209 203 189
0.538638 0.218034 0.960067 201 194 180
0.538638 0.218034 0.964847 202 195 182
0.543418 0.218034 0.960067 196 189 174
0.543418 0.218034 0.964847 195 188 172
0.548198 0.208474 0.950507 191 182 111
0.548198 0.208474 0.955287 139 130 64
0.552978 0.208474 0.950507 161 152 89
0.552978 0.208474 0.955287 127 118 60
0.548198 0.208474 0.960067 162 153 89
0.548198 0.208474 0.964847 177 169 98
0.552978 0.208474 0.960067 166 157 81
0.552978 0.208474 0.964847 174 165 88
0.548198 0.222814 0.950507 215 209 196
0.548198 0.222814 0.955287 207 200 186
0.552978 0.222814 0.950507 214 208 193
0.552978 0.222814 0.955287 201 194 181
0.548198 0.218034 0.960067 194 187 173
0.548198 0.218034 0.964847 192 185 170
0.548198 0.222814 0.960067 190 184 169
0.552978 0.218034 0.964847 193 186 171
0.552978 0.222814 0.960067 192 186 172
0.552978 0.222814 0.964847 189 182 166
0.557758 0.208474 0.936167 161 153 78
0.557758 0.213254 0.931387 105 99 60
0.557758 0.213254 0.936167 148 140 80
0.562538 0.213254 0.931387 84 79 47
0.562538 0.213254 0.936167 103 97 55
0.557758 0.208474 0.940947 174 166 91
0.557758 0.208474 0.945727 173 164 85
0.557758 0.213254 0.940947 164 155 79
0.557758 0.213254 0.945727 170 161 98
0.562538 0.213254 0.940947 131 123 66
0.562538 0.213254 0.945727 151 143 71
0.557758 0.222814 0.931387 155 146 132
0.557758 0.222814 0.936167 210 205 191
0.562538 0.222814 0.931387 190 183 171
0.562538 0.222814 0.936167 212 206 194
0.557758 0.222814 0.940947 209 203 189
0.557758 0.222814 0.945727 210 204 190
0.562538 0.222814 0.940947 209 203 189
0.562538 0.222814 0.945727 209 203 189
0.567318 0.213254 0.931387 108 101 50
0.567318 0.213254 0.936167 136 128 66
0.572098 0.213254 0.931387 106 98 49
0.572098 0.213254 0.936167 88 80 44
0.567318 0.213254 0.940947 124 117 62
0.567318 0.213254 0.945727 143 135 73
0.572098 0.213254 0.940947 115 107 56
0.572098 0.213254 0.945727 85 77 40
0.567318 0.218034 0.931387 149 141 79
0.567318 0.222814 0.931387 218 212 196
0.572098 0.218034 0.931387 132 124 69
0.572098 0.218034 0.936167 168 160 88
0.572098 0.218034 0.940947 170 161 92
0.572098 0.218034 0.945727 174 165 101
0.557758 0.208474 0.950507 134 127 72
0.557758 0.208474 0.955287 89 81 41
0.557758 0.213254 0.950507 152 144 82
0.557758 0.213254 0.955287 132 124 59
0.562538 0.213254 0.950507 126 118 58
0.562538 0.213254 0.955287 132 125 66
0.557758 0.208474 0.960067 160 151 71
0.557758 0.213254 0.960067 168 159 86
0.557758 0.213254 0.964847 170 161 88
0.562538 0.213254 0.960067 160 151 77
0.562538 0.213254 0.964847 162 153 79
0.557758 0.222814 0.950507 211 205 190
0.557758 0.222814 0.955287 199 193 178
0.557758 0.222814 0.960067 188 182 167
0.557758 0.222814 0.964847 187 180 165
0.562538 0.222814 0.964847 191 185 172
0.567318 0.213254 0.950507 113 106 52
0.567318 0.213254 0.955287 96 90 46
0.572098 0.213254 0.950507 109 102 48
0.572098 0.213254 0.955287 126 118 61
0.567318 0.213254 0.960067 111 104 56
0.567318 0.213254 0.964847 111 103 52
0.572098 0.213254 0.960067 111 105 50
0.572098 0.213254 0.964847 97 92 47
0.567318 0.218034 0.950507 134 125 82
0.572098 0.218034 0.950507 141 131 70
0.572098 0.218034 0.955287 165 157 88
0.567318 0.218034 0.964847 162 152 90
0.572098 0.218034 0.960067 133 125 67
0.572098 0.218034 0.964847 134 126 69
0.572098 0.227594 0.893147 197 193 183
0.572098 0.227594 0.897927 202 197 188
0.572098 0.227594 0.902707 228 226 213
0.466938 0.194134 0.969627 109 100 73
0.466938 0.194134 0.974407 85 76 59
0.471718 0.194134 0.969627 144 136 106
0.471718 0.194134 0.974407 105 97 72
0.476498 0.194134 0.969627 115 106 53
0.476498 0.194134 0.974407 144 135 88
0.476498 0.194134 0.979187 94 85 57
0.476498 0.194134 0.983967 219 210 195
0.471718 0.198914 0.969627 200 193 175
0.476498 0.198914 0.969627 202 196 179
0.476498 0.198914 0.974407 187 180 160
0.481278 0.194134 0.969627 99 92 45
0.481278 0.194134 0.974407 137 127 65
0.486058 0.194134 0.969627 118 110 53
0.486058 0.194134 0.974407 148 139 74
0.481278 0.194134 0.979187 127 117 67
0.481278 0.194134 0.983967 97 88 68
0.486058 0.194134 0.979187 148 138 70
0.486058 0.194134 0.983967 100 92 50
0.481278 0.198914 0.969627 209 203 188
