ply
format ascii 1.0
element vertex 1260
property double x
property double y
property double z
property uchar red
property uchar green
property uchar blue
end_header
0.307381 0.247725 0.138524 91 130 163
0.309403 0.247725 0.140546 97 132 163
0.311426 0.237614 0.138524 90 130 163
0.312437 0.236603 0.138524 84 122 154
0.311426 0.239636 0.140546 89 127 159
0.312437 0.239636 0.139535 85 126 159
0.314459 0.236603 0.143579 75 115 147
0.311426 0.241658 0.140546 75 116 151
0.314459 0.24368 0.14459 78 115 148
0.311426 0.247725 0.142568 81 123 157
0.305359 0.185035 0.147624 87 100 113
0.30637 0.18908 0.148635 98 104 113
0.305359 0.191102 0.149646 99 100 107
0.310415 0.187058 0.148635 100 113 131
0.308392 0.18908 0.148635 96 109 126
0.309403 0.188069 0.148635 93 112 131
0.307381 0.18908 0.149646 99 106 119
0.307381 0.191102 0.149646 106 109 116
0.307381 0.192113 0.150657 109 105 106
0.308392 0.193124 0.150657 117 107 103
0.308392 0.195147 0.150657 143 114 91
0.310415 0.192113 0.149646 112 108 111
0.310415 0.194135 0.149646 139 113 101
0.307381 0.199191 0.151668 144 114 87
0.312437 0.187058 0.146613 132 93 100
0.312437 0.18908 0.145602 133 93 100
0.312437 0.192113 0.146613 134 94 100
0.312437 0.193124 0.145602 134 98 102
0.311426 0.195147 0.147624 147 128 117
0.312437 0.196158 0.146613 141 117 108
0.311426 0.196158 0.148635 145 120 100
0.312437 0.19818 0.146613 145 122 112
0.311426 0.199191 0.149646 146 117 91
0.303337 0.201213 0.150657 102 66 58
0.304348 0.206269 0.152679 124 70 69
0.30637 0.204247 0.152679 136 84 73
0.30637 0.206269 0.152679 143 87 88
0.307381 0.202224 0.151668 142 109 81
0.309403 0.201213 0.151668 142 109 75
0.309403 0.202224 0.150657 142 109 76
0.310415 0.20728 0.150657 137 72 73
0.304348 0.210313 0.152679 127 59 79
0.308392 0.208291 0.152679 134 49 77
0.310415 0.209302 0.150657 136 68 76
0.309403 0.209302 0.152679 134 54 76
0.310415 0.212336 0.151668 133 62 83
0.30637 0.210313 0.153691 138 60 86
0.303337 0.213347 0.153691 120 51 72
0.30637 0.213347 0.154702 127 51 75
0.311426 0.201213 0.149646 144 113 87
0.312437 0.206269 0.147624 144 122 111
0.312437 0.20728 0.148635 141 98 92
0.311426 0.20728 0.149646 141 88 85
0.312437 0.210313 0.147624 142 124 117
0.313448 0.211325 0.147624 148 134 128
0.312437 0.208291 0.149646 149 99 96
0.312437 0.210313 0.149646 139 82 82
0.312437 0.211325 0.150657 151 97 99
0.313448 0.214358 0.148635 117 42 60
0.312437 0.215369 0.150657 121 24 50
0.310415 0.218402 0.152679 105 95 106
0.303337 0.220425 0.154702 96 54 69
0.308392 0.217391 0.154702 114 68 82
0.309403 0.21638 0.153691 121 41 65
0.305359 0.231547 0.157735 78 115 146
0.308392 0.227503 0.156724 88 121 149
0.310415 0.227503 0.154702 83 119 149
0.308392 0.229525 0.156724 82 113 142
0.308392 0.231547 0.156724 76 108 137
0.310415 0.229525 0.154702 83 119 149
0.309403 0.230536 0.156724 76 106 135
0.309403 0.231547 0.155713 73 103 133
0.312437 0.217391 0.150657 112 73 90
0.313448 0.222447 0.146613 118 64 84
0.313448 0.223458 0.147624 100 99 115
0.312437 0.220425 0.151668 128 18 62
0.311426 0.224469 0.152679 84 118 144
0.312437 0.226491 0.151668 92 114 137
0.312437 0.227503 0.152679 89 115 140
0.314459 0.231547 0.148635 92 125 152
0.312437 0.228514 0.151668 79 111 140
0.312437 0.229525 0.152679 78 116 146
0.313448 0.230536 0.152679 73 110 142
0.313448 0.231547 0.151668 76 105 133
0.304348 0.232558 0.157735 80 115 144
0.304348 0.23458 0.157735 85 115 140
0.305359 0.235592 0.157735 85 114 139
0.304348 0.236603 0.158746 87 76 88
0.309403 0.232558 0.156724 81 113 141
0.310415 0.233569 0.156724 84 120 150
0.309403 0.23458 0.156724 82 120 151
0.309403 0.236603 0.156724 76 107 135
0.307381 0.237614 0.157735 87 105 124
0.309403 0.239636 0.157735 80 93 110
0.30637 0.241658 0.159757 113 92 96
0.30637 0.24368 0.159757 157 153 155
0.305359 0.245703 0.159757 159 157 161
0.305359 0.246714 0.160768 159 157 162
0.30637 0.246714 0.159757 150 149 153
0.310415 0.24368 0.156724 92 68 82
0.308392 0.240647 0.158746 91 59 67
0.308392 0.24368 0.159757 143 134 133
0.314459 0.232558 0.147624 85 123 153
0.314459 0.233569 0.148635 79 118 150
0.314459 0.237614 0.148635 86 120 149
0.314459 0.238625 0.151668 84 114 143
0.312437 0.233569 0.154702 81 118 148
0.311426 0.237614 0.155713 77 111 141
0.311426 0.239636 0.155713 81 119 151
0.313448 0.239636 0.153691 84 118 147
0.314459 0.241658 0.150657 83 122 152
0.313448 0.240647 0.152679 91 120 147
0.314459 0.240647 0.151668 82 115 143
0.314459 0.24368 0.150657 70 106 139
0.314459 0.242669 0.151668 80 118 150
0.314459 0.247725 0.150657 88 110 131
0.311426 0.245703 0.157735 106 67 67
0.252781 0.249747 0.029323 109 111 123
0.251769 0.253792 0.030334 176 125 116
0.249747 0.256825 0.031345 167 161 161
0.253792 0.258847 0.031345 179 169 168
0.253792 0.26087 0.031345 154 151 155
0.239636 0.251769 0.038423 159 136 112
0.24368 0.249747 0.034378 118 37 59
0.245703 0.250758 0.033367 130 66 77
0.239636 0.262892 0.039434 163 70 15
0.245703 0.261881 0.034378 102 85 80
0.245703 0.262892 0.035389 139 64 20
0.245703 0.263903 0.034378 143 81 55
0.247725 0.256825 0.032356 138 141 149
0.246714 0.261881 0.033367 102 115 129
0.247725 0.262892 0.033367 114 127 144
0.248736 0.263903 0.032356 122 136 154
0.241658 0.270981 0.038423 146 115 89
0.238625 0.265925 0.042467 151 64 0
0.240647 0.264914 0.040445 156 60 0
0.240647 0.268959 0.040445 153 61 13
0.239636 0.27907 0.042467 127 114 103
0.240647 0.27907 0.041456 134 127 126
0.246714 0.266936 0.034378 157 89 31
0.249747 0.271992 0.034378 129 140 157
0.250758 0.267947 0.033367 85 111 137
0.253792 0.264914 0.032356 134 143 159
0.247725 0.273003 0.035389 135 139 148
0.255814 0.250758 0.029323 118 89 108
0.262892 0.248736 0.028311 164 32 68
0.264914 0.248736 0.028311 159 9 55
0.265925 0.253792 0.030334 170 21 74
0.267947 0.250758 0.029323 161 36 70
0.262892 0.257836 0.031345 186 174 172
0.262892 0.259858 0.031345 193 180 181
0.255814 0.263903 0.032356 193 184 184
0.266936 0.259858 0.033367 199 185 182
0.26997 0.256825 0.033367 174 85 106
0.268959 0.26087 0.034378 180 173 177
0.268959 0.262892 0.034378 198 186 186
0.257836 0.266936 0.033367 180 175 184
0.256825 0.26997 0.034378 123 148 191
0.259858 0.266936 0.033367 186 177 183
0.26087 0.271992 0.0364 107 125 172
0.257836 0.27907 0.037412 131 154 192
0.258847 0.273003 0.035389 100 127 181
0.261881 0.276036 0.037412 108 134 176
0.258847 0.278059 0.037412 127 149 187
0.263903 0.265925 0.034378 200 185 185
0.265925 0.266936 0.035389 197 185 186
0.264914 0.268959 0.0364 185 176 181
0.268959 0.26997 0.039434 202 190 190
0.265925 0.277048 0.040445 182 180 188
0.264914 0.27907 0.041456 147 158 178
0.268959 0.275025 0.042467 199 188 186
0.242669 0.281092 0.039434 132 133 139
0.24368 0.282103 0.039434 135 122 118
0.245703 0.283114 0.037412 138 100 120
0.24368 0.28817 0.039434 116 133 159
0.244692 0.287159 0.039434 113 133 162
0.241658 0.284125 0.041456 111 111 114
0.241658 0.28817 0.041456 150 149 155
0.245703 0.290192 0.039434 174 167 167
0.239636 0.293225 0.046512 140 145 159
0.241658 0.295248 0.044489 136 145 168
0.242669 0.289181 0.041456 129 142 164
0.24368 0.292214 0.041456 153 153 163
0.244692 0.292214 0.040445 174 167 167
0.24368 0.294237 0.041456 177 170 171
0.245703 0.294237 0.041456 165 161 164
0.244692 0.295248 0.041456 152 149 154
0.242669 0.296259 0.044489 167 162 167
0.248736 0.281092 0.0364 117 144 175
0.247725 0.285136 0.037412 128 139 167
0.246714 0.28817 0.038423 181 173 174
0.247725 0.287159 0.038423 195 185 185
0.250758 0.284125 0.037412 164 168 186
0.251769 0.286148 0.038423 185 180 184
0.247725 0.289181 0.038423 200 189 185
0.247725 0.293225 0.040445 188 177 177
0.247725 0.295248 0.040445 194 182 180
0.252781 0.291203 0.041456 188 180 181
0.251769 0.296259 0.041456 182 174 175
0.252781 0.293225 0.041456 188 180 182
0.245703 0.300303 0.043478 171 167 171
0.24368 0.300303 0.045501 174 167 170
0.242669 0.300303 0.046512 167 161 163
0.245703 0.302326 0.043478 160 141 147
0.242669 0.303337 0.047523 179 172 170
0.247725 0.298281 0.041456 161 154 160
0.247725 0.301314 0.042467 186 167 167
0.249747 0.301314 0.042467 158 93 105
0.251769 0.303337 0.042467 104 123 150
0.252781 0.303337 0.043478 100 145 181
0.246714 0.307381 0.045501 95 147 188
0.246714 0.309403 0.047523 81 144 194
0.251769 0.30637 0.043478 94 152 197
0.250758 0.312437 0.046512 80 143 194
0.252781 0.310415 0.044489 85 149 201
0.254803 0.283114 0.038423 179 177 187
0.258847 0.282103 0.039434 206 196 198
0.254803 0.287159 0.040445 185 178 181
0.257836 0.286148 0.042467 207 197 195
0.259858 0.284125 0.040445 188 178 180
0.261881 0.286148 0.042467 186 177 179
0.257836 0.289181 0.043478 183 174 175
0.256825 0.291203 0.044489 202 195 196
0.262892 0.284125 0.043478 154 159 173
0.262892 0.286148 0.043478 199 190 191
0.263903 0.285136 0.043478 161 164 177
0.266936 0.282103 0.043478 146 162 185
0.26997 0.283114 0.047523 145 154 171
0.264914 0.290192 0.047523 147 78 84
0.254803 0.300303 0.044489 76 102 123
0.254803 0.301314 0.043478 91 125 152
0.254803 0.304348 0.044489 87 128 167
0.257836 0.30637 0.047523 87 122 152
0.256825 0.308392 0.046512 83 123 159
0.255814 0.310415 0.045501 88 137 180
0.238625 0.300303 0.048534 101 126 154
0.238625 0.30637 0.050556 94 129 171
0.241658 0.311426 0.050556 80 119 161
0.239636 0.311426 0.052578 115 145 181
0.239636 0.312437 0.053589 116 150 183
0.245703 0.310415 0.049545 73 135 183
0.245703 0.311426 0.048534 75 138 187
0.263903 0.294237 0.048534 120 155 186
0.262892 0.295248 0.048534 87 141 182
0.267947 0.289181 0.049545 125 131 147
0.257836 0.303337 0.048534 90 127 158
0.258847 0.298281 0.048534 94 147 188
0.261881 0.298281 0.049545 104 148 186
0.258847 0.301314 0.049545 100 142 177
0.261881 0.301314 0.050556 96 141 178
0.26087 0.311426 0.053589 72 112 144
0.262892 0.29727 0.050556 96 149 192
0.264914 0.298281 0.051567 90 144 187
0.262892 0.301314 0.051567 86 136 178
0.266936 0.299292 0.054601 87 135 178
0.268959 0.298281 0.055612 93 142 182
0.26997 0.299292 0.055612 96 147 187
0.26997 0.300303 0.056623 105 155 196
0.266936 0.304348 0.056623 90 140 180
0.268959 0.304348 0.059656 109 139 169
0.267947 0.311426 0.06269 192 185 185
0.26997 0.310415 0.064712 190 184 188
0.271992 0.248736 0.029323 154 105 127
0.270981 0.248736 0.030334 149 19 79
0.273003 0.248736 0.030334 159 98 124
0.271992 0.255814 0.032356 177 8 78
0.274014 0.255814 0.034378 173 18 80
0.276036 0.249747 0.032356 148 56 79
0.273003 0.263903 0.037412 162 161 169
0.282103 0.250758 0.037412 154 5 57
0.280081 0.255814 0.038423 159 19 79
0.283114 0.253792 0.039434 135 135 143
0.283114 0.254803 0.040445 139 101 122
0.281092 0.258847 0.040445 125 137 156
0.281092 0.259858 0.041456 74 135 177
0.280081 0.262892 0.043478 100 144 179
0.283114 0.26087 0.044489 104 155 194
0.283114 0.26087 0.046512 100 153 194
0.273003 0.268959 0.040445 199 188 189
0.277048 0.265925 0.041456 174 152 149
0.276036 0.270981 0.045501 207 195 192
0.271992 0.276036 0.044489 196 188 192
0.281092 0.264914 0.044489 119 148 178
0.281092 0.265925 0.045501 107 111 132
0.281092 0.266936 0.046512 138 42 66
0.27907 0.268959 0.046512 199 184 177
0.290192 0.248736 0.045501 168 68 99
0.286148 0.259858 0.052578 93 144 183
0.283114 0.263903 0.049545 89 146 189
0.285136 0.26087 0.050556 102 152 191
0.286148 0.26087 0.057634 79 133 176
0.286148 0.261881 0.06269 79 117 155
0.286148 0.261881 0.079879 86 122 152
0.274014 0.280081 0.048534 202 192 192
0.277048 0.275025 0.048534 198 189 189
0.276036 0.280081 0.050556 179 174 179
0.27907 0.270981 0.048534 153 154 162
0.284125 0.265925 0.054601 86 138 177
0.284125 0.266936 0.059656 90 138 176
0.286148 0.264914 0.061678 76 127 167
0.27907 0.276036 0.051567 199 190 190
0.27907 0.276036 0.053589 183 176 179
0.282103 0.274014 0.058645 181 164 158
0.282103 0.276036 0.06269 164 161 164
0.280081 0.278059 0.056623 194 185 185
0.285136 0.268959 0.070779 89 132 167
0.284125 0.271992 0.074823 78 117 151
0.284125 0.271992 0.079879 98 126 152
0.285136 0.270981 0.076845 79 125 160
0.283114 0.275025 0.066734 121 35 33
0.283114 0.275025 0.070779 104 62 73
0.283114 0.277048 0.068756 125 104 101
0.284125 0.276036 0.078868 84 127 159
0.284125 0.277048 0.077856 91 101 118
0.284125 0.277048 0.079879 86 116 140
0.284125 0.27907 0.079879 114 29 45
0.290192 0.251769 0.050556 146 104 126
0.289181 0.252781 0.048534 144 110 133
0.289181 0.253792 0.049545 154 42 90
0.28817 0.254803 0.053589 145 88 119
0.28817 0.255814 0.052578 129 112 139
0.291203 0.248736 0.052578 168 22 77
0.289181 0.255814 0.059656 91 116 140
0.28817 0.257836 0.06269 93 137 172
0.28817 0.258847 0.061678 87 136 175
0.289181 0.252781 0.068756 177 172 172
0.289181 0.253792 0.069767 183 179 180
0.291203 0.251769 0.067745 184 177 173
0.291203 0.252781 0.064712 188 182 175
0.290192 0.248736 0.073812 140 109 120
0.28817 0.256825 0.067745 110 53 66
0.287159 0.26087 0.068756 79 118 153
0.274014 0.283114 0.051567 186 180 183
0.271992 0.285136 0.049545 143 157 177
0.276036 0.283114 0.053589 204 195 195
0.276036 0.285136 0.053589 203 194 196
0.278059 0.285136 0.059656 195 187 188
0.278059 0.28817 0.060667 191 186 190
0.270981 0.292214 0.053589 110 140 169
0.274014 0.289181 0.053589 148 163 186
0.274014 0.290192 0.054601 147 165 190
0.270981 0.293225 0.054601 136 163 192
0.270981 0.296259 0.055612 101 150 189
0.273003 0.294237 0.055612 130 154 182
0.273003 0.296259 0.059656 147 170 196
0.274014 0.296259 0.060667 126 151 179
0.275025 0.291203 0.056623 149 166 189
0.275025 0.292214 0.057634 161 177 199
0.277048 0.289181 0.058645 203 196 198
0.27907 0.281092 0.056623 187 179 180
0.27907 0.284125 0.059656 195 187 189
0.280081 0.281092 0.061678 179 173 174
0.280081 0.283114 0.061678 187 180 182
0.280081 0.284125 0.06269 182 176 178
0.27907 0.285136 0.060667 195 187 189
0.277048 0.293225 0.064712 154 166 184
0.278059 0.293225 0.067745 148 154 168
0.277048 0.295248 0.064712 148 164 186
0.277048 0.296259 0.065723 150 167 190
0.281092 0.282103 0.065723 167 162 164
0.282103 0.281092 0.07179 166 162 165
0.282103 0.287159 0.07179 142 140 144
0.283114 0.284125 0.077856 157 153 156
0.283114 0.287159 0.078868 151 148 152
0.283114 0.28817 0.079879 140 138 144
0.27907 0.291203 0.068756 178 175 181
0.281092 0.289181 0.070779 165 161 165
0.281092 0.296259 0.077856 155 155 163
0.282103 0.295248 0.079879 155 153 157
0.283114 0.291203 0.078868 148 146 151
0.270981 0.29727 0.056623 89 138 180
0.270981 0.300303 0.057634 104 151 189
0.270981 0.299292 0.058645 100 148 187
0.274014 0.299292 0.063701 111 114 132
0.270981 0.301314 0.058645 86 130 167
0.273003 0.302326 0.063701 129 58 67
0.275025 0.298281 0.065723 128 146 172
0.277048 0.298281 0.069767 123 146 173
0.278059 0.302326 0.072801 114 142 171
0.277048 0.304348 0.073812 106 135 166
0.278059 0.304348 0.074823 106 132 163
0.271992 0.308392 0.066734 121 143 170
0.271992 0.312437 0.070779 169 177 192
0.274014 0.309403 0.07179 130 154 182
0.273003 0.311426 0.070779 136 153 176
0.278059 0.308392 0.076845 160 163 174
0.282103 0.29727 0.079879 153 152 159
0.281092 0.300303 0.079879 115 130 150
0.27907 0.304348 0.075834 105 131 160
0.27907 0.307381 0.076845 159 164 176
0.27907 0.309403 0.078868 160 161 167
0.238625 0.314459 0.054601 85 136 178
0.238625 0.318504 0.054601 89 127 158
0.242669 0.316481 0.054601 112 143 173
0.242669 0.318504 0.054601 91 132 166
0.245703 0.319515 0.054601 102 131 161
0.241658 0.32457 0.055612 86 125 157
0.244692 0.323559 0.055612 79 119 153
0.24368 0.326593 0.055612 75 107 139
0.242669 0.327604 0.055612 78 111 144
0.242669 0.328615 0.054601 89 120 149
0.24368 0.328615 0.055612 88 117 145
0.248736 0.313448 0.049545 68 119 166
0.248736 0.316481 0.050556 71 125 172
0.249747 0.316481 0.051567 68 125 173
0.247725 0.317492 0.052578 80 132 176
0.246714 0.319515 0.053589 118 144 174
0.247725 0.321537 0.054601 90 126 158
0.247725 0.322548 0.055612 67 118 158
0.253792 0.322548 0.051567 103 131 167
0.251769 0.323559 0.054601 112 140 168
0.251769 0.326593 0.055612 134 28 39
0.253792 0.325581 0.054601 122 60 80
0.250758 0.328615 0.056623 149 99 90
0.238625 0.33367 0.052578 81 100 118
0.241658 0.336704 0.055612 114 99 95
0.242669 0.329626 0.055612 91 119 146
0.24368 0.330637 0.055612 89 104 121
0.242669 0.331648 0.055612 92 107 125
0.238625 0.339737 0.052578 83 82 87
0.241658 0.343782 0.055612 108 108 113
0.242669 0.340748 0.055612 129 129 136
0.245703 0.337715 0.056623 160 155 157
0.246714 0.332659 0.056623 175 158 155
0.251769 0.332659 0.057634 163 160 168
0.253792 0.335693 0.058645 190 182 185
0.248736 0.340748 0.058645 170 164 167
0.249747 0.339737 0.058645 164 159 164
0.251769 0.337715 0.058645 185 176 176
0.256825 0.316481 0.048534 84 140 187
0.257836 0.31547 0.048534 81 133 177
0.254803 0.318504 0.048534 75 144 196
0.254803 0.319515 0.049545 72 128 182
0.254803 0.320526 0.050556 68 129 173
0.256825 0.320526 0.050556 89 120 158
0.258847 0.31547 0.049545 81 125 162
0.259858 0.31547 0.050556 79 113 143
0.259858 0.31547 0.052578 96 113 132
0.26087 0.318504 0.052578 96 58 67
0.255814 0.321537 0.050556 79 106 149
0.254803 0.323559 0.051567 122 139 173
0.256825 0.322548 0.050556 118 59 102
0.257836 0.32457 0.051567 129 146 184
0.255814 0.326593 0.053589 191 185 188
0.256825 0.327604 0.053589 184 182 190
0.258847 0.323559 0.051567 146 129 150
0.259858 0.323559 0.052578 149 155 175
0.26087 0.322548 0.052578 168 160 162
0.261881 0.321537 0.054601 148 149 155
0.261881 0.32457 0.053589 119 139 164
0.259858 0.325581 0.052578 142 158 187
0.261881 0.326593 0.055612 144 151 165
0.26087 0.328615 0.054601 198 191 195
0.264914 0.316481 0.06269 180 174 176
0.262892 0.320526 0.058645 151 152 159
0.264914 0.317492 0.063701 168 167 175
0.266936 0.313448 0.063701 197 187 186
0.262892 0.322548 0.056623 146 151 162
0.262892 0.322548 0.058645 146 150 161
0.263903 0.32457 0.063701 116 131 149
0.263903 0.328615 0.057634 158 156 160
0.263903 0.326593 0.061678 127 137 151
0.267947 0.314459 0.065723 169 172 184
0.268959 0.314459 0.066734 133 150 173
0.267947 0.320526 0.069767 163 166 178
0.265925 0.32457 0.067745 145 146 154
0.264914 0.325581 0.065723 145 147 156
0.265925 0.326593 0.067745 158 154 157
0.266936 0.323559 0.067745 132 139 151
0.26997 0.322548 0.073812 142 146 158
0.26997 0.323559 0.074823 126 139 158
0.259858 0.329626 0.054601 204 195 198
0.258847 0.331648 0.055612 175 169 181
0.255814 0.33367 0.058645 199 190 193
0.261881 0.335693 0.058645 190 185 192
0.254803 0.343782 0.061678 167 163 169
0.257836 0.34277 0.061678 204 193 195
0.256825 0.344793 0.06269 190 185 193
0.258847 0.340748 0.060667 201 193 198
0.26087 0.34277 0.060667 187 181 187
0.261881 0.34277 0.061678 190 185 190
0.26087 0.344793 0.06269 183 185 200
0.262892 0.329626 0.057634 160 157 160
0.263903 0.329626 0.058645 164 160 162
0.263903 0.330637 0.059656 154 151 155
0.263903 0.329626 0.060667 161 158 162
0.264914 0.331648 0.061678 163 159 162
0.262892 0.337715 0.059656 194 187 188
0.263903 0.339737 0.060667 183 178 183
0.264914 0.337715 0.061678 159 157 162
0.264914 0.343782 0.061678 145 156 176
0.265925 0.330637 0.069767 136 138 146
0.265925 0.335693 0.064712 172 170 176
0.268959 0.332659 0.074823 108 127 148
0.26997 0.329626 0.076845 125 139 159
0.267947 0.336704 0.073812 102 119 139
0.266936 0.338726 0.068756 126 139 157
0.266936 0.338726 0.070779 112 127 146
0.266936 0.339737 0.069767 115 130 149
0.266936 0.344793 0.064712 116 134 155
0.267947 0.344793 0.065723 93 118 143
0.267947 0.343782 0.066734 99 122 146
0.26997 0.340748 0.079879 176 152 129
0.267947 0.341759 0.074823 156 136 119
0.268959 0.344793 0.072801 181 158 137
0.238625 0.347826 0.045501 85 104 124
0.238625 0.352882 0.042467 100 114 131
0.239636 0.356926 0.043478 99 113 129
0.239636 0.355915 0.044489 105 117 132
0.239636 0.358948 0.041456 110 119 132
0.238625 0.360971 0.040445 129 132 140
0.239636 0.35996 0.042467 119 125 135
0.240647 0.358948 0.044489 109 119 134
0.241658 0.360971 0.047523 118 123 134
0.240647 0.365015 0.042467 124 128 136
0.239636 0.368049 0.040445 145 142 145
0.241658 0.368049 0.042467 141 141 147
0.242669 0.36906 0.044489 95 108 124
0.238625 0.374115 0.037412 77 99 122
0.240647 0.377149 0.038423 85 104 126
0.242669 0.371082 0.042467 140 141 148
0.24368 0.373104 0.047523 97 113 131
0.242669 0.376138 0.041456 79 99 122
0.242669 0.377149 0.042467 65 91 117
0.239636 0.348837 0.049545 84 100 118
0.239636 0.348837 0.051567 76 92 110
0.239636 0.348837 0.053589 59 77 94
0.240647 0.346815 0.055612 97 98 104
0.239636 0.350859 0.051567 74 91 109
0.239636 0.351871 0.050556 81 99 117
0.239636 0.351871 0.054601 65 80 95
0.245703 0.345804 0.057634 157 154 158
0.245703 0.350859 0.058645 151 149 154
0.241658 0.357937 0.048534 90 102 117
0.240647 0.357937 0.051567 96 105 117
0.241658 0.35996 0.056623 82 91 103
0.242669 0.356926 0.056623 97 101 108
0.24368 0.356926 0.057634 123 122 127
0.245703 0.355915 0.059656 138 138 143
0.24368 0.357937 0.058645 122 122 128
0.245703 0.357937 0.059656 124 130 141
0.249747 0.348837 0.059656 152 150 155
0.247725 0.356926 0.060667 115 124 138
0.238625 0.361982 0.055612 75 87 101
0.239636 0.366026 0.054601 73 85 98
0.238625 0.368049 0.055612 70 86 102
0.239636 0.368049 0.054601 69 84 99
0.242669 0.364004 0.049545 132 134 142
0.242669 0.365015 0.048534 136 137 143
0.242669 0.367037 0.050556 112 121 135
0.239636 0.361982 0.056623 75 89 103
0.239636 0.364004 0.056623 79 92 107
0.240647 0.361982 0.057634 77 90 104
0.241658 0.365015 0.057634 77 90 105
0.238625 0.366026 0.057634 82 95 109
0.245703 0.365015 0.059656 104 115 129
0.24368 0.368049 0.058645 86 99 113
0.245703 0.36906 0.059656 94 104 117
0.245703 0.366026 0.060667 99 110 124
0.245703 0.368049 0.060667 93 103 116
0.238625 0.370071 0.055612 77 88 103
0.239636 0.370071 0.054601 90 97 108
0.24368 0.371082 0.051567 119 126 137
0.244692 0.372093 0.049545 152 150 155
0.242669 0.370071 0.053589 101 108 118
0.242669 0.372093 0.053589 98 106 117
0.244692 0.376138 0.049545 102 119 139
0.245703 0.377149 0.051567 106 120 138
0.238625 0.370071 0.057634 78 88 105
0.238625 0.371082 0.056623 80 90 105
0.240647 0.371082 0.058645 79 91 106
0.240647 0.373104 0.058645 73 88 104
0.241658 0.372093 0.058645 74 87 102
0.238625 0.376138 0.056623 101 110 122
0.245703 0.376138 0.060667 76 60 74
0.246714 0.361982 0.059656 107 118 131
0.247725 0.365015 0.061678 111 121 134
0.251769 0.361982 0.063701 119 132 148
0.253792 0.366026 0.063701 104 91 86
0.246714 0.374115 0.061678 101 95 94
0.246714 0.375126 0.060667 89 75 78
0.253792 0.371082 0.063701 139 127 120
0.259858 0.345804 0.06269 153 161 185
0.261881 0.347826 0.06269 139 156 184
0.264914 0.346815 0.06269 148 162 182
0.257836 0.351871 0.064712 130 153 193
0.259858 0.354904 0.065723 152 170 196
0.259858 0.355915 0.066734 147 165 194
0.261881 0.355915 0.066734 148 167 197
0.261881 0.358948 0.067745 125 147 184
0.261881 0.360971 0.067745 129 151 183
0.265925 0.349848 0.064712 150 154 166
0.265925 0.350859 0.065723 187 173 165
0.265925 0.352882 0.065723 205 182 162
0.267947 0.346815 0.067745 174 162 156
0.266936 0.347826 0.065723 144 146 157
0.266936 0.348837 0.064712 144 150 163
0.267947 0.346815 0.069767 182 160 140
0.267947 0.345804 0.070779 165 143 121
0.268959 0.348837 0.070779 190 163 138
0.267947 0.352882 0.067745 202 172 142
0.268959 0.351871 0.069767 190 161 132
0.268959 0.345804 0.075834 173 149 127
0.26997 0.349848 0.076845 178 155 133
0.26997 0.351871 0.078868 181 154 127
0.265925 0.354904 0.065723 198 176 156
0.264914 0.355915 0.065723 163 129 113
0.265925 0.356926 0.067745 183 139 107
0.264914 0.357937 0.067745 144 135 145
0.265925 0.358948 0.067745 147 129 131
0.264914 0.360971 0.068756 114 145 179
0.265925 0.35996 0.068756 140 135 146
0.268959 0.353893 0.069767 188 160 131
0.268959 0.357937 0.069767 209 176 139
0.268959 0.35996 0.069767 180 108 37
0.255814 0.362993 0.065723 121 82 75
0.256825 0.365015 0.066734 133 114 101
0.254803 0.368049 0.064712 140 129 123
0.258847 0.361982 0.067745 119 136 159
0.26087 0.365015 0.070779 145 135 145
0.255814 0.372093 0.065723 125 115 107
0.256825 0.370071 0.067745 118 108 102
0.257836 0.377149 0.068756 124 105 82
0.259858 0.370071 0.070779 98 86 77
0.258847 0.376138 0.068756 135 121 107
0.261881 0.377149 0.07179 126 108 93
0.261881 0.376138 0.072801 135 118 103
0.262892 0.362993 0.068756 127 150 181
0.263903 0.361982 0.068756 118 146 182
0.264914 0.362993 0.068756 122 150 182
0.262892 0.366026 0.07179 162 156 161
0.26997 0.361982 0.072801 179 64 11
0.26997 0.365015 0.073812 182 97 35
0.267947 0.366026 0.072801 156 149 153
0.262892 0.375126 0.072801 128 113 98
0.270981 0.313448 0.070779 167 173 187
0.271992 0.313448 0.07179 154 164 182
0.270981 0.317492 0.07179 165 169 182
0.271992 0.314459 0.072801 141 154 174
0.274014 0.316481 0.076845 184 181 186
0.273003 0.319515 0.075834 127 139 157
0.273003 0.322548 0.076845 47 88 131
0.275025 0.322548 0.079879 112 135 162
0.270981 0.334682 0.078868 174 154 137
0.270981 0.362993 0.074823 173 104 38
0.270981 0.361982 0.079879 183 156 130
0.270981 0.362993 0.078868 189 162 133
0.270981 0.370071 0.077856 134 134 144
0.270981 0.372093 0.077856 138 143 157
0.238625 0.379171 0.0364 86 110 134
0.242669 0.37816 0.041456 87 105 127
0.24368 0.37816 0.042467 83 103 126
0.245703 0.381193 0.045501 89 108 130
0.242669 0.385238 0.040445 82 113 140
0.244692 0.382204 0.043478 78 104 130
0.245703 0.383215 0.045501 60 94 124
0.241658 0.38726 0.039434 84 116 144
0.246714 0.385238 0.046512 52 93 124
0.246714 0.390293 0.043478 62 100 131
0.247725 0.391304 0.045501 38 91 127
0.240647 0.394338 0.037412 85 115 143
0.240647 0.397371 0.038423 39 83 129
0.241658 0.39636 0.038423 53 96 130
0.240647 0.399393 0.038423 99 125 155
0.241658 0.398382 0.038423 52 95 133
0.242669 0.402427 0.041456 118 138 163
0.246714 0.394338 0.043478 83 110 135
0.248736 0.395349 0.046512 96 120 143
0.249747 0.395349 0.047523 89 118 143
0.248736 0.39636 0.045501 99 123 148
0.247725 0.398382 0.044489 62 97 128
0.248736 0.399393 0.044489 39 85 119
0.249747 0.399393 0.047523 45 86 120
0.250758 0.400404 0.047523 68 97 129
0.248736 0.406471 0.045501 136 145 159
0.250758 0.40546 0.046512 124 140 160
0.250758 0.407482 0.046512 111 131 155
0.245703 0.381193 0.051567 89 110 135
0.24368 0.381193 0.055612 76 89 105
0.244692 0.379171 0.054601 58 80 105
0.245703 0.380182 0.052578 85 104 131
0.239636 0.37816 0.059656 111 116 124
0.241658 0.37816 0.059656 102 107 115
0.241658 0.380182 0.056623 74 85 100
0.239636 0.382204 0.058645 80 93 107
0.241658 0.383215 0.057634 101 110 122
0.24368 0.37816 0.060667 72 85 100
0.242669 0.380182 0.060667 99 104 112
0.245703 0.381193 0.061678 64 82 98
0.242669 0.383215 0.061678 70 83 99
0.245703 0.38726 0.055612 67 85 110
0.24368 0.389282 0.057634 66 82 101
0.244692 0.389282 0.056623 64 83 103
0.242669 0.38726 0.060667 68 81 98
0.242669 0.389282 0.060667 69 85 102
0.244692 0.38726 0.06269 63 80 97
0.245703 0.388271 0.06269 66 81 98
0.242669 0.390293 0.059656 69 87 106
0.24368 0.393327 0.059656 75 93 111
0.245703 0.391304 0.057634 72 88 109
0.242669 0.391304 0.060667 78 94 110
0.24368 0.390293 0.06269 71 86 102
0.24368 0.392315 0.060667 85 99 114
0.245703 0.393327 0.063701 58 78 98
0.246714 0.381193 0.048534 101 121 143
0.246714 0.382204 0.049545 102 124 147
0.247725 0.384227 0.050556 69 106 138
0.247725 0.385238 0.053589 77 104 137
0.246714 0.385238 0.063701 50 76 98
0.248736 0.382204 0.063701 67 77 99
0.247725 0.386249 0.050556 59 105 139
0.247725 0.38726 0.051567 76 112 144
0.247725 0.388271 0.052578 54 96 135
0.248736 0.391304 0.050556 82 119 151
0.249747 0.393327 0.049545 55 94 127
0.246714 0.392315 0.057634 63 84 108
0.252781 0.380182 0.065723 124 106 82
0.250758 0.384227 0.065723 85 88 110
0.252781 0.384227 0.065723 99 59 96
0.247725 0.388271 0.064712 78 92 109
0.245703 0.394338 0.058645 73 93 113
0.245703 0.397371 0.059656 70 89 107
0.24368 0.394338 0.06269 90 102 117
0.245703 0.400404 0.06269 77 93 110
0.249747 0.398382 0.048534 67 104 136
0.250758 0.397371 0.050556 86 117 145
0.251769 0.400404 0.054601 52 95 132
0.246714 0.395349 0.058645 71 93 114
0.248736 0.395349 0.056623 39 89 127
0.246714 0.394338 0.063701 48 72 94
0.246714 0.39636 0.063701 60 79 100
0.246714 0.398382 0.059656 54 78 102
0.249747 0.399393 0.057634 52 92 126
0.246714 0.401416 0.06269 95 106 120
0.248736 0.401416 0.060667 43 72 103
0.251769 0.400404 0.056623 28 79 123
0.252781 0.403438 0.052578 49 89 132
0.252781 0.403438 0.054601 109 128 150
0.252781 0.404449 0.053589 93 114 145
0.252781 0.404449 0.055612 109 126 145
0.251769 0.407482 0.049545 110 132 156
0.246714 0.402427 0.063701 85 100 116
0.248736 0.406471 0.063701 76 96 115
0.250758 0.404449 0.059656 38 81 117
0.250758 0.406471 0.061678 38 79 116
0.247725 0.394338 0.064712 46 72 95
0.246714 0.401416 0.064712 64 85 104
0.247725 0.400404 0.064712 45 71 94
0.249747 0.399393 0.065723 42 69 92
0.253792 0.398382 0.066734 51 81 110
0.252781 0.401416 0.066734 36 73 105
0.247725 0.402427 0.064712 63 84 103
0.247725 0.40546 0.065723 52 74 96
0.248736 0.406471 0.065723 55 77 99
0.251769 0.404449 0.066734 46 73 100
0.250758 0.407482 0.066734 57 79 98
0.251769 0.409505 0.067745 36 68 93
0.252781 0.406471 0.067745 65 84 106
0.254803 0.37816 0.065723 149 133 116
0.255814 0.383215 0.067745 135 37 77
0.254803 0.384227 0.067745 122 40 78
0.257836 0.384227 0.068756 135 84 93
0.258847 0.37816 0.068756 123 90 62
0.258847 0.381193 0.068756 135 28 76
0.258847 0.384227 0.069767 141 114 108
0.258847 0.386249 0.069767 149 131 117
0.259858 0.388271 0.070779 162 148 141
0.263903 0.381193 0.075834 153 137 126
0.263903 0.385238 0.075834 149 137 128
0.262892 0.386249 0.074823 138 126 117
0.264914 0.386249 0.077856 123 106 90
0.262892 0.391304 0.075834 161 140 118
0.256825 0.397371 0.068756 77 99 124
0.255814 0.400404 0.068756 67 91 116
0.258847 0.395349 0.070779 67 99 133
0.259858 0.39636 0.072801 100 120 147
0.261881 0.395349 0.075834 100 121 148
0.261881 0.39636 0.074823 70 101 144
0.254803 0.402427 0.067745 52 79 108
0.254803 0.409505 0.068756 25 62 98
0.255814 0.408493 0.068756 59 85 110
0.255814 0.409505 0.069767 51 79 109
0.257836 0.408493 0.070779 70 93 120
0.257836 0.409505 0.07179 68 93 119
0.258847 0.409505 0.072801 60 87 121
0.259858 0.409505 0.073812 71 103 137
0.263903 0.394338 0.077856 161 143 126
0.263903 0.398382 0.077856 113 127 150
0.262892 0.402427 0.075834 74 101 142
0.263903 0.403438 0.077856 73 99 131
0.262892 0.407482 0.076845 104 123 149
0.239636 0.413549 0.047523 176 193 220
0.241658 0.410516 0.044489 131 147 200
0.241658 0.412538 0.044489 88 132 194
0.24368 0.411527 0.043478 135 147 197
0.244692 0.410516 0.043478 114 130 184
0.24368 0.412538 0.044489 109 129 198
0.24368 0.413549 0.045501 137 156 211
0.245703 0.417594 0.047523 154 168 213
0.246714 0.411527 0.044489 118 141 185
0.247725 0.413549 0.045501 128 151 199
0.247725 0.41456 0.046512 105 129 192
0.248736 0.416582 0.047523 132 153 196
0.250758 0.412538 0.047523 68 97 141
0.238625 0.413549 0.048534 163 185 217
0.238625 0.41456 0.049545 123 140 212
0.239636 0.416582 0.050556 39 79 191
0.239636 0.417594 0.051567 80 105 197
0.241658 0.415571 0.049545 167 175 223
0.241658 0.417594 0.051567 93 110 203
0.240647 0.419616 0.054601 124 129 188
0.242669 0.422649 0.055612 192 193 210
0.242669 0.422649 0.057634 203 195 207
0.24368 0.422649 0.056623 193 193 208
0.24368 0.42366 0.057634 203 198 208
0.245703 0.425683 0.057634 206 201 213
0.248736 0.417594 0.048534 137 157 198
0.252781 0.412538 0.049545 84 116 150
0.253792 0.417594 0.051567 133 154 179
0.251769 0.412538 0.06269 38 78 122
0.252781 0.411527 0.06269 46 83 126
0.253792 0.41456 0.06269 39 80 128
0.246714 0.421638 0.050556 92 115 192
0.249747 0.419616 0.049545 164 181 215
0.248736 0.420627 0.049545 152 166 207
0.248736 0.421638 0.050556 119 146 203
0.249747 0.422649 0.050556 98 126 195
0.249747 0.42366 0.051567 58 91 187
0.251769 0.420627 0.050556 105 131 180
0.250758 0.422649 0.051567 94 126 194
0.251769 0.422649 0.050556 101 131 193
0.250758 0.424671 0.051567 73 98 184
0.252781 0.422649 0.051567 82 121 177
0.252781 0.42366 0.052578 80 117 179
0.253792 0.422649 0.052578 70 113 164
0.253792 0.425683 0.053589 90 115 177
0.252781 0.410516 0.067745 33 67 95
0.252781 0.413549 0.068756 53 77 100
0.253792 0.42366 0.067745 56 86 130
0.240647 0.427705 0.058645 152 156 183
0.239636 0.430738 0.056623 107 119 143
0.241658 0.433771 0.059656 83 113 159
0.242669 0.429727 0.060667 107 117 165
0.24368 0.428716 0.061678 131 141 182
0.242669 0.433771 0.060667 86 106 169
0.244692 0.430738 0.06269 126 130 174
0.244692 0.43276 0.06269 136 145 171
0.241658 0.434783 0.058645 102 117 141
0.244692 0.434783 0.063701 137 142 166
0.245703 0.435794 0.063701 135 141 166
0.244692 0.437816 0.06269 167 171 189
0.249747 0.429727 0.055612 172 175 207
0.252781 0.427705 0.054601 134 150 189
0.253792 0.426694 0.054601 110 133 184
0.251769 0.431749 0.055612 141 160 202
0.246714 0.426694 0.057634 198 195 217
0.246714 0.429727 0.060667 155 159 189
0.248736 0.431749 0.058645 163 170 206
0.247725 0.430738 0.060667 153 157 196
0.246714 0.431749 0.063701 143 150 185
0.247725 0.43276 0.06269 125 134 185
0.248736 0.434783 0.063701 126 141 186
0.251769 0.434783 0.058645 106 133 205
0.250758 0.435794 0.06269 111 130 188
0.250758 0.436805 0.063701 114 129 181
0.251769 0.439838 0.063701 117 132 184
0.253792 0.440849 0.06269 113 135 197
0.253792 0.44186 0.063701 138 160 202
0.246714 0.434783 0.064712 170 170 189
0.246714 0.438827 0.065723 122 132 166
0.246714 0.439838 0.064712 150 155 185
0.250758 0.437816 0.064712 105 124 174
0.250758 0.438827 0.065723 115 126 173
0.250758 0.440849 0.067745 133 141 180
0.254803 0.415571 0.052578 89 119 152
0.254803 0.416582 0.055612 95 121 152
0.255814 0.417594 0.055612 129 147 168
0.254803 0.411527 0.058645 87 121 152
0.254803 0.413549 0.056623 35 85 128
0.254803 0.41456 0.059656 62 102 138
0.255814 0.416582 0.056623 77 109 143
0.255814 0.417594 0.057634 103 129 157
0.254803 0.419616 0.052578 55 99 146
0.254803 0.425683 0.054601 78 110 168
0.255814 0.419616 0.059656 115 139 169
0.255814 0.422649 0.056623 38 89 134
0.256825 0.424671 0.057634 55 103 152
0.256825 0.425683 0.058645 61 106 156
0.257836 0.425683 0.061678 123 147 177
0.257836 0.410516 0.070779 71 94 120
0.255814 0.416582 0.07179 56 83 115
0.259858 0.410516 0.072801 88 110 138
0.26087 0.416582 0.075834 75 101 137
0.254803 0.418605 0.070779 53 79 102
0.255814 0.418605 0.07179 59 86 116
0.254803 0.420627 0.070779 53 79 104
0.254803 0.424671 0.065723 46 85 138
0.256825 0.425683 0.064712 78 110 151
0.256825 0.418605 0.072801 65 91 124
0.256825 0.420627 0.072801 65 91 124
0.257836 0.420627 0.073812 71 95 131
0.26087 0.418605 0.075834 81 104 137
0.259858 0.420627 0.076845 53 81 123
0.26087 0.421638 0.076845 53 81 126
0.255814 0.429727 0.057634 128 142 178
0.256825 0.426694 0.057634 69 114 167
0.257836 0.426694 0.06269 86 120 157
0.257836 0.428716 0.060667 55 98 151
0.254803 0.433771 0.058645 203 203 216
0.256825 0.433771 0.058645 202 202 214
0.257836 0.431749 0.061678 164 173 190
0.254803 0.434783 0.057634 189 195 214
0.256825 0.434783 0.059656 197 198 211
0.254803 0.437816 0.060667 111 126 182
0.256825 0.435794 0.060667 198 200 212
0.257836 0.435794 0.061678 158 166 183
0.254803 0.439838 0.060667 121 138 191
0.257836 0.438827 0.06269 172 181 200
0.258847 0.434783 0.063701 179 182 194
0.258847 0.436805 0.063701 177 181 196
0.258847 0.438827 0.063701 163 174 193
0.254803 0.426694 0.067745 61 94 140
0.255814 0.426694 0.066734 60 96 143
0.255814 0.427705 0.067745 62 95 144
0.255814 0.427705 0.07179 54 80 114
0.255814 0.428716 0.070779 50 82 123
0.258847 0.433771 0.068756 58 91 147
0.255814 0.426694 0.072801 59 85 115
0.257836 0.426694 0.075834 64 91 125
0.256825 0.429727 0.072801 63 88 121
0.256825 0.431749 0.074823 56 84 121
0.259858 0.429727 0.076845 77 100 132
0.259858 0.429727 0.078868 65 94 125
0.259858 0.436805 0.066734 178 181 192
0.259858 0.439838 0.069767 118 141 172
0.259858 0.436805 0.072801 60 87 134
0.238625 0.443883 0.056623 120 132 156
0.240647 0.445905 0.058645 174 168 169
0.241658 0.444894 0.058645 153 156 166
0.241658 0.445905 0.059656 166 164 169
0.24368 0.443883 0.061678 103 122 146
0.244692 0.442872 0.061678 131 137 153
0.242669 0.446916 0.059656 160 161 168
0.242669 0.449949 0.060667 100 117 141
0.242669 0.456016 0.06269 100 118 162
0.244692 0.455005 0.063701 109 130 159
0.246714 0.446916 0.065723 108 123 147
0.247725 0.449949 0.065723 103 124 150
0.249747 0.448938 0.068756 144 154 187
0.252781 0.442872 0.067745 112 116 165
0.251769 0.444894 0.068756 123 127 170
0.251769 0.445905 0.069767 127 133 166
0.252781 0.445905 0.068756 118 123 163
0.250758 0.446916 0.069767 144 148 175
0.251769 0.448938 0.070779 127 133 167
0.251769 0.449949 0.07179 139 143 174
0.253792 0.448938 0.070779 125 129 167
0.247725 0.451972 0.065723 122 138 159
0.249747 0.451972 0.069767 111 131 161
0.248736 0.452983 0.069767 94 116 151
0.248736 0.455005 0.069767 101 119 153
0.250758 0.458038 0.072801 102 115 153
0.252781 0.456016 0.072801 104 116 170
0.245703 0.45905 0.066734 98 114 151
0.242669 0.465116 0.065723 156 156 166
0.24368 0.465116 0.066734 166 163 171
0.24368 0.471183 0.068756 165 162 166
0.242669 0.474216 0.068756 120 130 148
0.244692 0.471183 0.069767 149 151 160
0.246714 0.45905 0.067745 105 117 152
0.247725 0.462083 0.069767 166 166 174
0.250758 0.461072 0.073812 134 148 171
0.252781 0.45905 0.073812 101 112 156
0.252781 0.460061 0.074823 99 114 156
0.250758 0.464105 0.074823 123 133 157
0.252781 0.465116 0.075834 165 163 171
0.248736 0.46815 0.072801 166 167 176
0.249747 0.467139 0.072801 151 156 170
0.247725 0.474216 0.073812 134 141 158
0.255814 0.442872 0.06269 124 148 201
0.255814 0.447927 0.067745 150 166 203
0.256825 0.448938 0.067745 167 181 216
0.259858 0.442872 0.064712 79 107 178
0.259858 0.444894 0.066734 134 158 187
0.26087 0.443883 0.067745 71 104 146
0.26087 0.443883 0.076845 71 101 143
0.257836 0.456016 0.07179 107 133 177
0.258847 0.452983 0.069767 129 155 189
0.26087 0.451972 0.070779 87 116 173
0.255814 0.458038 0.073812 103 113 157
0.26087 0.453994 0.074823 80 117 169
0.259858 0.455005 0.072801 108 139 188
0.261881 0.456016 0.078868 91 116 153
0.261881 0.457027 0.076845 85 117 164
0.261881 0.458038 0.077856 95 128 165
0.254803 0.461072 0.075834 96 110 154
0.254803 0.463094 0.077856 148 152 170
0.261881 0.460061 0.079879 93 119 162
0.26087 0.462083 0.078868 74 107 172
0.259858 0.463094 0.078868 85 114 171
0.238625 0.47725 0.067745 76 97 126
0.239636 0.476239 0.068756 86 103 131
0.238625 0.480283 0.068756 118 125 138
0.238625 0.482305 0.070779 137 138 145
0.24368 0.475228 0.070779 107 123 148
0.24368 0.479272 0.07179 116 127 147
0.245703 0.475228 0.072801 114 126 151
0.242669 0.480283 0.072801 131 136 149
0.238625 0.483316 0.069767 136 136 143
0.239636 0.484328 0.07179 157 152 153
0.241658 0.483316 0.072801 157 153 156
0.241658 0.488372 0.073812 122 126 137
0.245703 0.483316 0.074823 118 123 135
0.245703 0.490394 0.079879 124 134 148
0.249747 0.48635 0.079879 164 160 164
0.239636 0.505561 0.050556 93 112 135
0.239636 0.50455 0.053589 110 124 143
0.240647 0.505561 0.053589 97 117 139
0.239636 0.506572 0.059656 123 133 148
0.238625 0.493428 0.07179 102 118 140
0.238625 0.498483 0.074823 92 116 147
0.239636 0.497472 0.076845 88 101 139
0.24368 0.496461 0.079879 69 92 132
0.238625 0.505561 0.065723 85 109 135
0.241658 0.502528 0.079879 90 107 132
0.239636 0.506572 0.077856 115 126 141
0.244692 0.248736 0.098079 62 82 102
0.244692 0.252781 0.098079 78 96 116
0.246714 0.248736 0.098079 82 94 109
0.252781 0.255814 0.101112 81 92 105
0.253792 0.254803 0.101112 109 112 120
0.247725 0.262892 0.09909 113 114 120
0.249747 0.261881 0.100101 108 112 122
0.250758 0.259858 0.09909 77 94 111
0.251769 0.261881 0.100101 94 104 118
0.252781 0.26087 0.100101 75 93 110
0.239636 0.280081 0.09909 69 87 104
0.242669 0.278059 0.09909 66 84 102
0.250758 0.271992 0.100101 83 97 113
0.248736 0.278059 0.100101 78 91 106
0.248736 0.27907 0.101112 90 91 95
0.255814 0.254803 0.102123 116 116 122
0.261881 0.248736 0.105157 110 111 116
0.261881 0.254803 0.105157 118 119 125
0.255814 0.262892 0.101112 83 98 114
0.26087 0.258847 0.103134 121 120 125
0.262892 0.249747 0.105157 117 117 123
0.263903 0.252781 0.105157 118 118 123
0.268959 0.250758 0.10819 124 124 130
0.267947 0.255814 0.10819 114 116 123
0.262892 0.263903 0.104146 115 117 124
0.264914 0.258847 0.106168 118 119 125
0.264914 0.262892 0.105157 117 117 122
0.265925 0.263903 0.105157 117 118 123
0.255814 0.264914 0.101112 62 83 102
0.254803 0.26997 0.101112 76 83 93
0.255814 0.270981 0.101112 119 105 93
0.259858 0.267947 0.102123 94 101 111
0.261881 0.266936 0.104146 85 100 116
0.26087 0.26997 0.103134 73 70 76
0.257836 0.276036 0.102123 100 42 39
0.256825 0.280081 0.102123 98 36 53
0.259858 0.280081 0.103134 92 18 31
0.268959 0.26997 0.107179 81 93 107
0.264914 0.280081 0.105157 106 21 45
0.265925 0.27907 0.105157 115 55 65
0.238625 0.290192 0.103134 121 92 57
0.240647 0.290192 0.103134 115 84 56
0.241658 0.291203 0.103134 121 92 58
0.246714 0.28817 0.104146 118 91 54
0.248736 0.290192 0.104146 113 85 47
0.250758 0.289181 0.105157 90 85 86
0.252781 0.292214 0.106168 101 58 78
0.251769 0.293225 0.106168 106 57 77
0.238625 0.29727 0.106168 125 98 67
0.240647 0.29727 0.106168 124 97 66
0.241658 0.29727 0.107179 120 92 63
0.24368 0.300303 0.10819 120 92 59
0.238625 0.305359 0.110212 120 103 85
0.246714 0.299292 0.10819 105 77 54
0.248736 0.300303 0.109201 101 47 67
0.248736 0.301314 0.110212 96 43 64
0.248736 0.303337 0.110212 100 58 71
0.249747 0.303337 0.111223 100 57 69
0.256825 0.281092 0.103134 88 30 50
0.254803 0.287159 0.104146 91 71 82
0.261881 0.285136 0.104146 94 18 38
0.256825 0.28817 0.105157 96 73 82
0.256825 0.294237 0.10819 87 71 77
0.265925 0.284125 0.106168 108 22 48
0.262892 0.296259 0.10819 80 72 75
0.263903 0.295248 0.10819 88 88 90
0.265925 0.296259 0.109201 103 65 77
0.26997 0.295248 0.110212 112 22 51
0.254803 0.298281 0.109201 104 38 65
0.258847 0.298281 0.109201 80 71 76
0.258847 0.299292 0.110212 83 52 64
0.261881 0.298281 0.110212 82 66 72
0.261881 0.300303 0.110212 85 81 85
0.259858 0.304348 0.112235 92 53 64
0.263903 0.303337 0.111223 81 74 77
0.264914 0.307381 0.112235 87 84 88
0.267947 0.30637 0.112235 85 90 100
0.246714 0.309403 0.114257 101 66 72
0.249747 0.310415 0.114257 100 63 70
0.250758 0.30637 0.113246 101 54 71
0.250758 0.309403 0.114257 102 60 73
0.251769 0.311426 0.115268 96 54 66
0.255814 0.311426 0.115268 100 37 60
0.258847 0.30637 0.113246 99 57 67
0.259858 0.309403 0.115268 99 48 61
0.259858 0.312437 0.116279 95 32 51
0.26087 0.310415 0.115268 93 27 47
0.262892 0.308392 0.113246 79 64 70
0.263903 0.308392 0.114257 77 76 83
0.265925 0.307381 0.113246 72 74 80
0.285136 0.253792 0.087968 71 122 160
0.285136 0.255814 0.087968 90 128 161
0.285136 0.252781 0.092012 95 99 123
0.284125 0.254803 0.095045 154 150 152
0.285136 0.253792 0.093023 107 53 61
0.285136 0.26087 0.081901 73 113 147
0.283114 0.257836 0.092012 114 48 52
0.283114 0.258847 0.08999 98 108 128
0.283114 0.259858 0.091001 106 67 75
0.271992 0.253792 0.110212 125 125 131
0.270981 0.255814 0.109201 107 110 118
0.274014 0.252781 0.111223 122 124 131
0.275025 0.248736 0.112235 126 126 131
0.270981 0.257836 0.109201 118 119 126
0.273003 0.26087 0.110212 107 115 127
0.286148 0.252781 0.100101 170 167 171
0.285136 0.254803 0.100101 156 157 165
0.283114 0.259858 0.09909 169 166 171
0.285136 0.259858 0.101112 168 166 171
0.283114 0.262892 0.100101 147 148 156
0.283114 0.264914 0.084934 80 125 160
0.283114 0.265925 0.085945 77 125 160
0.282103 0.265925 0.094034 165 161 164
0.281092 0.268959 0.094034 150 148 154
0.283114 0.27907 0.083923 106 70 73
0.281092 0.273003 0.092012 163 159 162
0.280081 0.273003 0.095045 155 152 155
0.280081 0.274014 0.096057 160 156 159
0.280081 0.277048 0.093023 141 138 142
0.270981 0.266936 0.10819 99 109 123
0.273003 0.265925 0.109201 99 110 124
0.277048 0.264914 0.112235 85 106 127
0.271992 0.274014 0.10819 105 76 89
0.275025 0.276036 0.111223 126 88 47
0.285136 0.264914 0.104146 142 144 151
0.286148 0.268959 0.105157 153 151 155
0.286148 0.271992 0.110212 119 132 147
0.281092 0.275025 0.098079 160 155 158
0.282103 0.273003 0.102123 150 149 155
0.27907 0.280081 0.097068 147 145 150
0.281092 0.27907 0.102123 145 145 150
0.283114 0.274014 0.104146 148 149 156
0.283114 0.277048 0.107179 94 110 128
0.283114 0.27907 0.105157 100 117 138
0.284125 0.27907 0.110212 98 110 126
0.286148 0.280081 0.111223 128 128 136
0.287159 0.251769 0.081901 79 127 162
0.28817 0.248736 0.102123 167 166 173
0.28817 0.252781 0.103134 174 171 175
0.290192 0.248736 0.106168 149 149 157
0.290192 0.257836 0.107179 131 136 147
0.290192 0.258847 0.10819 131 136 148
0.295248 0.249747 0.110212 160 158 163
0.295248 0.259858 0.112235 122 143 166
0.287159 0.264914 0.105157 139 140 147
0.28817 0.271992 0.110212 117 130 146
0.28817 0.276036 0.112235 101 88 112
0.276036 0.248736 0.113246 127 126 131
0.276036 0.252781 0.113246 116 120 128
0.280081 0.249747 0.116279 121 124 132
0.27907 0.252781 0.116279 112 119 130
0.284125 0.248736 0.119312 120 127 138
0.284125 0.251769 0.120324 101 117 135
0.283114 0.252781 0.118301 93 111 130
0.283114 0.254803 0.118301 91 111 132
0.285136 0.249747 0.121335 96 112 131
0.286148 0.252781 0.123357 84 107 130
0.286148 0.255814 0.124368 74 97 117
0.286148 0.252781 0.125379 96 116 137
0.282103 0.261881 0.120324 81 108 133
0.285136 0.256825 0.122346 86 106 127
0.285136 0.257836 0.123357 112 119 130
0.285136 0.258847 0.122346 105 122 141
0.286148 0.256825 0.125379 72 58 79
0.285136 0.263903 0.123357 74 104 131
0.286148 0.262892 0.125379 102 117 136
0.286148 0.255814 0.134479 71 106 133
0.285136 0.255814 0.136502 63 96 124
0.283114 0.249747 0.142568 88 69 77
0.284125 0.251769 0.142568 73 65 83
0.285136 0.252781 0.138524 70 103 130
0.285136 0.257836 0.136502 64 99 127
0.281092 0.268959 0.116279 124 127 136
0.284125 0.264914 0.123357 81 106 131
0.285136 0.268959 0.124368 97 115 134
0.281092 0.280081 0.115268 125 103 81
0.282103 0.277048 0.11729 85 101 120
0.284125 0.275025 0.119312 99 110 124
0.285136 0.275025 0.120324 104 114 128
0.284125 0.278059 0.120324 66 97 125
0.283114 0.27907 0.118301 72 93 114
0.285136 0.280081 0.121335 73 97 127
0.287159 0.251769 0.127401 98 116 137
0.298281 0.248736 0.113246 184 181 185
0.298281 0.251769 0.114257 174 176 186
0.298281 0.254803 0.11729 169 175 188
0.299292 0.248736 0.118301 169 169 176
0.299292 0.251769 0.121335 162 163 171
0.300303 0.248736 0.125379 166 164 170
0.295248 0.26087 0.115268 134 152 174
0.296259 0.263903 0.115268 188 175 169
0.29727 0.262892 0.11729 171 173 181
0.29727 0.263903 0.118301 169 169 175
0.302326 0.258847 0.127401 149 151 157
0.302326 0.259858 0.128413 142 144 151
0.300303 0.263903 0.124368 125 141 161
0.287159 0.255814 0.129424 70 103 131
0.287159 0.256825 0.132457 75 109 137
0.28817 0.263903 0.140546 71 104 131
0.287159 0.26087 0.141557 62 97 125
0.293225 0.266936 0.113246 130 137 150
0.294237 0.270981 0.115268 159 131 113
0.289181 0.276036 0.113246 121 98 123
0.289181 0.280081 0.115268 126 92 115
0.28817 0.273003 0.127401 105 116 131
0.29727 0.264914 0.119312 179 171 168
0.295248 0.270981 0.116279 162 95 96
0.295248 0.271992 0.11729 160 58 90
0.298281 0.265925 0.121335 149 151 159
0.299292 0.265925 0.123357 116 132 152
0.300303 0.271992 0.123357 152 153 161
0.302326 0.270981 0.127401 122 139 159
0.29727 0.273003 0.119312 157 63 94
0.298281 0.278059 0.123357 116 130 153
0.299292 0.274014 0.122346 115 79 103
0.302326 0.273003 0.127401 113 134 158
0.28817 0.266936 0.131446 130 131 138
0.28817 0.265925 0.138524 76 90 104
0.287159 0.267947 0.142568 69 101 126
0.28817 0.268959 0.137513 83 48 70
0.287159 0.26997 0.14459 66 98 124
0.28817 0.273003 0.131446 87 106 126
0.289181 0.273003 0.132457 108 119 134
0.289181 0.274014 0.131446 87 106 126
0.289181 0.280081 0.129424 130 130 136
0.289181 0.27907 0.134479 92 108 128
0.289181 0.27907 0.136502 88 108 129
0.290192 0.27907 0.13549 89 108 128
0.289181 0.276036 0.141557 126 127 133
0.278059 0.287159 0.095045 143 141 144
0.278059 0.28817 0.096057 142 139 143
0.282103 0.285136 0.086957 144 142 146
0.282103 0.287159 0.086957 154 149 152
0.281092 0.281092 0.088979 158 152 151
