ply
format ascii 1.0
comment PCL generated
element vertex 1292
property float x
property float y
property float z
property uchar red
property uchar green
property uchar blue
element camera 0
property float view_px
property float view_py
property float view_pz
property float x_axisx
property float x_axisy
property float x_axisz
property float y_axisx
property float y_axisy
property float y_axisz
property float z_axisx
property float z_axisy
property float z_axisz
property float focal
property float scalex
property float scaley
property float centerx
property float centery
property int viewportx
property int viewporty
property float k1
property float k2
end_header
0.32069 0.082202 0.052379 76 64 51
0.32069 0.087202 0.052379 81 66 50
0.32569 0.072202 0.047379 78 64 48
0.32569 0.072202 0.052379 96 79 61
0.32569 0.077202 0.052379 90 76 61
0.33069 0.072202 0.052379 107 87 67
0.33069 0.077202 0.052379 88 73 56
0.32569 0.082202 0.052379 85 71 56
0.32569 0.087202 0.052379 92 76 58
0.33069 0.082202 0.052379 91 76 59
0.33069 0.087202 0.052379 102 83 63
0.32569 0.087202 0.057379 101 82 63
0.33069 0.087202 0.057379 108 88 65
0.31569 0.092202 0.047379 72 60 47
0.31569 0.092202 0.052379 76 62 47
0.31569 0.097202 0.047379 76 66 56
0.31569 0.097202 0.052379 89 76 63
0.32069 0.092202 0.052379 86 69 52
0.32069 0.097202 0.052379 90 73 54
0.31569 0.102202 0.052379 87 71 54
0.31569 0.107202 0.052379 88 71 53
0.32069 0.102202 0.052379 94 76 56
0.32069 0.107202 0.052379 97 78 57
0.32569 0.092202 0.052379 101 82 61
0.32569 0.097202 0.052379 110 89 68
0.33069 0.092202 0.052379 120 96 70
0.33069 0.097202 0.052379 119 95 70
0.32569 0.092202 0.057379 105 85 63
0.33069 0.092202 0.057379 116 94 70
0.33069 0.097202 0.057379 119 98 77
0.32569 0.102202 0.052379 110 89 66
0.32569 0.107202 0.052379 117 92 66
0.33069 0.102202 0.052379 123 95 72
0.33069 0.107202 0.047379 137 103 81
0.33069 0.107202 0.052379 130 99 77
0.33569 0.072202 0.052379 98 78 56
0.33569 0.077202 0.052379 92 74 55
0.34069 0.072202 0.052379 113 91 67
0.34069 0.077202 0.052379 114 92 69
0.33569 0.082202 0.052379 101 83 62
0.33569 0.087202 0.052379 116 93 69
0.34069 0.082202 0.052379 119 96 72
0.34069 0.087202 0.047379 138 108 84
0.34069 0.087202 0.052379 129 102 79
0.34569 0.072202 0.052379 122 96 74
0.34569 0.077202 0.047379 134 105 81
0.34569 0.077202 0.052379 123 97 75
0.35069 0.072202 0.047379 132 104 77
0.35069 0.072202 0.052379 128 100 76
0.35069 0.077202 0.047379 136 105 79
0.35069 0.077202 0.052379 130 102 78
0.34569 0.082202 0.047379 143 111 87
0.34569 0.082202 0.052379 129 103 79
0.34569 0.087202 0.047379 148 115 91
0.35069 0.082202 0.047379 148 113 86
0.33569 0.092202 0.052379 125 98 74
0.33569 0.097202 0.047379 134 104 80
0.33569 0.097202 0.052379 131 101 79
0.34069 0.092202 0.047379 138 108 82
0.34069 0.092202 0.052379 134 105 82
0.34069 0.097202 0.047379 132 104 79
0.34069 0.097202 0.052379 136 106 84
0.33569 0.102202 0.047379 136 106 82
0.33569 0.102202 0.052379 134 103 81
0.33569 0.107202 0.047379 139 106 83
0.33569 0.107202 0.052379 136 105 84
0.34069 0.102202 0.047379 131 103 75
0.34569 0.092202 0.047379 146 113 88
0.31569 0.112202 0.022379 136 106 74
0.31569 0.117202 0.022379 138 108 73
0.32069 0.112202 0.022379 142 112 78
0.31569 0.122202 0.022379 138 107 72
0.31569 0.117202 0.027379 141 110 76
0.32069 0.112202 0.027379 139 108 73
0.32069 0.117202 0.027379 134 105 71
0.31569 0.122202 0.027379 137 108 73
0.31569 0.127202 0.027379 134 106 72
0.32069 0.122202 0.027379 129 103 71
0.32069 0.122202 0.032379 128 102 71
0.32069 0.127202 0.027379 129 102 70
0.32069 0.127202 0.032379 127 101 72
0.32569 0.112202 0.027379 136 105 71
0.32569 0.112202 0.032379 136 107 73
0.32569 0.117202 0.027379 132 103 70
0.32569 0.117202 0.032379 134 106 73
0.33069 0.112202 0.027379 138 108 73
0.33069 0.112202 0.032379 143 112 78
0.33069 0.117202 0.032379 138 108 75
0.33069 0.112202 0.037379 148 115 84
0.33069 0.112202 0.042379 143 108 79
0.33069 0.117202 0.037379 143 111 80
0.33069 0.117202 0.042379 140 106 78
0.32569 0.122202 0.032379 131 103 72
0.32569 0.127202 0.032379 128 101 71
0.32569 0.122202 0.037379 138 107 75
0.32569 0.122202 0.042379 137 103 74
0.32569 0.127202 0.037379 137 106 74
0.32569 0.127202 0.042379 135 104 74
0.33069 0.122202 0.037379 141 109 78
0.33069 0.122202 0.042379 139 106 78
0.31569 0.132202 0.027379 134 105 72
0.31569 0.137202 0.027379 131 104 75
0.32069 0.132202 0.027379 130 103 73
0.32069 0.132202 0.032379 126 101 72
0.32069 0.137202 0.027379 122 100 76
0.32069 0.137202 0.032379 123 101 79
0.32069 0.137202 0.037379 110 95 81
0.32069 0.137202 0.042379 118 105 98
0.31569 0.142202 0.027379 130 114 101
0.31569 0.142202 0.032379 139 124 112
0.31569 0.147202 0.027379 141 127 114
0.31569 0.147202 0.032379 137 123 110
0.32069 0.142202 0.032379 135 120 108
0.32069 0.147202 0.032379 128 115 104
0.32069 0.142202 0.037379 134 120 107
0.32069 0.142202 0.042379 144 126 106
0.32069 0.147202 0.037379 142 115 85
0.32069 0.147202 0.042379 160 86 27
0.32569 0.132202 0.032379 127 100 69
0.32569 0.137202 0.032379 125 104 83
0.32569 0.132202 0.037379 130 102 72
0.32569 0.132202 0.042379 124 103 83
0.32569 0.137202 0.037379 120 103 86
0.32569 0.137202 0.042379 131 117 105
0.32569 0.142202 0.037379 148 133 119
0.33569 0.112202 0.037379 149 116 85
0.33569 0.112202 0.042379 146 111 82
0.31569 0.112202 0.052379 89 72 53
0.32069 0.112202 0.052379 101 81 58
0.32069 0.117202 0.052379 110 88 64
0.31569 0.112202 0.057379 88 71 53
0.31569 0.117202 0.057379 85 69 53
0.31569 0.117202 0.062379 82 69 56
0.32069 0.112202 0.057379 98 78 57
0.32069 0.117202 0.057379 101 81 58
0.32069 0.127202 0.052379 123 107 97
0.31569 0.122202 0.062379 117 104 92
0.31569 0.127202 0.057379 126 109 95
0.31569 0.127202 0.062379 142 113 82
0.32069 0.122202 0.057379 117 97 76
0.32069 0.122202 0.062379 118 105 93
0.32069 0.127202 0.057379 126 111 100
0.32069 0.127202 0.062379 145 129 115
0.32569 0.112202 0.052379 123 97 70
0.32569 0.117202 0.047379 132 100 72
0.32569 0.117202 0.052379 127 98 71
0.33069 0.112202 0.047379 137 104 80
0.33069 0.112202 0.052379 134 102 79
0.33069 0.117202 0.047379 136 102 76
0.33069 0.117202 0.052379 135 103 76
0.32569 0.122202 0.047379 134 100 73
0.32569 0.122202 0.052379 125 97 71
0.32569 0.127202 0.047379 125 98 72
0.32569 0.127202 0.052379 116 98 80
0.33069 0.122202 0.047379 135 101 73
0.32569 0.122202 0.057379 111 90 67
0.31569 0.117202 0.067379 108 96 85
0.31569 0.122202 0.067379 125 112 102
0.31569 0.122202 0.072379 136 122 106
0.31569 0.127202 0.067379 153 89 39
0.31569 0.137202 0.052379 167 77 7
0.32069 0.132202 0.052379 125 110 97
0.32069 0.137202 0.047379 127 112 100
0.32069 0.137202 0.052379 137 92 52
0.31569 0.132202 0.057379 163 89 23
0.31569 0.132202 0.062379 163 78 9
0.31569 0.137202 0.057379 168 70 3
0.31569 0.137202 0.062379 168 77 3
0.32069 0.132202 0.057379 133 109 82
0.32069 0.137202 0.057379 155 75 8
0.31569 0.142202 0.052379 158 63 4
0.31569 0.147202 0.052379 162 68 6
0.32069 0.142202 0.047379 141 97 56
0.32069 0.142202 0.052379 162 73 8
0.32069 0.147202 0.047379 167 70 7
0.32069 0.147202 0.052379 164 70 6
0.31569 0.142202 0.057379 164 78 5
0.31569 0.147202 0.057379 143 77 44
0.32569 0.132202 0.047379 117 102 90
0.32569 0.132202 0.052379 126 110 100
0.32569 0.137202 0.047379 113 101 91
0.31569 0.132202 0.067379 168 78 8
0.35569 0.007202 0.022379 128 121 117
0.36069 0.007202 0.022379 120 112 105
0.36569 0.007202 0.022379 126 117 110
0.35569 0.002202 0.027379 132 121 114
0.35569 0.002202 0.032379 125 110 97
0.36069 0.002202 0.027379 127 120 117
0.36069 0.002202 0.032379 129 119 113
0.36069 0.007202 0.027379 116 112 111
0.35569 0.002202 0.037379 121 104 88
0.35569 0.002202 0.042379 113 97 82
0.36069 0.002202 0.037379 129 115 104
0.36069 0.002202 0.042379 127 112 100
0.36569 0.002202 0.027379 129 122 119
0.36569 0.002202 0.032379 132 123 118
0.36569 0.007202 0.027379 128 121 117
0.37069 0.002202 0.027379 133 124 120
0.37069 0.002202 0.032379 134 124 120
0.37069 0.007202 0.027379 131 121 116
0.37069 0.007202 0.032379 134 123 117
0.36569 0.002202 0.037379 133 122 115
0.36569 0.002202 0.042379 134 121 112
0.37069 0.002202 0.037379 136 124 118
0.37069 0.002202 0.042379 137 123 115
0.37069 0.007202 0.037379 137 125 119
0.37069 0.007202 0.042379 138 123 116
0.35569 0.012202 0.017379 119 108 100
0.35569 0.012202 0.022379 163 136 109
0.35569 0.017202 0.017379 119 96 69
0.36069 0.012202 0.017379 110 92 73
0.36069 0.012202 0.022379 126 114 104
0.36069 0.017202 0.017379 130 106 79
0.36069 0.017202 0.022379 129 105 78
0.35569 0.022202 0.017379 134 108 81
0.35569 0.027202 0.017379 138 112 88
0.35569 0.027202 0.022379 142 116 89
0.36069 0.022202 0.017379 147 114 88
0.36069 0.022202 0.022379 156 115 94
0.36069 0.027202 0.017379 144 114 88
0.36069 0.027202 0.022379 151 119 96
0.36569 0.012202 0.022379 141 127 116
0.36569 0.017202 0.022379 136 112 86
0.36569 0.022202 0.022379 150 111 89
0.36069 0.022202 0.027379 144 105 86
0.36069 0.027202 0.027379 141 110 85
0.36069 0.027202 0.032379 128 102 76
0.36069 0.027202 0.037379 127 101 73
0.36069 0.027202 0.042379 128 100 74
0.36569 0.012202 0.027379 139 126 117
0.36569 0.017202 0.027379 152 123 97
0.36569 0.017202 0.032379 178 143 121
0.37069 0.012202 0.027379 129 119 111
0.37069 0.012202 0.032379 132 121 112
0.37069 0.017202 0.027379 170 151 139
0.37069 0.017202 0.032379 189 166 155
0.37069 0.017202 0.037379 203 172 168
0.37069 0.017202 0.042379 204 168 163
0.36569 0.022202 0.027379 161 124 100
0.36569 0.022202 0.032379 158 118 98
0.36569 0.022202 0.037379 154 119 98
0.36569 0.022202 0.042379 159 126 109
0.37069 0.022202 0.037379 201 177 169
0.37069 0.022202 0.042379 219 191 189
0.37569 0.007202 0.032379 136 124 117
0.37569 0.007202 0.037379 138 125 118
0.37569 0.007202 0.042379 139 124 116
0.38069 0.007202 0.042379 147 133 126
0.37569 0.012202 0.032379 139 125 117
0.37569 0.017202 0.032379 158 141 132
0.37569 0.012202 0.037379 134 120 113
0.37569 0.012202 0.042379 134 120 113
0.37569 0.017202 0.037379 149 130 122
0.37569 0.017202 0.042379 150 128 121
0.38069 0.012202 0.037379 152 134 125
0.38069 0.012202 0.042379 126 114 108
0.38069 0.017202 0.042379 146 129 120
0.35569 0.002202 0.047379 113 99 87
0.35569 0.002202 0.052379 118 105 96
0.36069 0.002202 0.047379 127 113 102
0.36069 0.002202 0.052379 129 113 103
0.35569 0.002202 0.057379 123 110 102
0.35569 0.002202 0.062379 127 114 106
0.36069 0.002202 0.057379 127 112 103
0.36069 0.002202 0.062379 130 115 107
0.36569 0.002202 0.047379 135 118 109
0.36569 0.002202 0.052379 133 114 103
0.37069 0.002202 0.047379 136 117 107
0.37069 0.002202 0.052379 134 110 96
0.37069 0.007202 0.047379 136 118 108
0.36569 0.002202 0.057379 131 111 99
0.36569 0.002202 0.062379 129 110 99
0.37069 0.002202 0.057379 134 106 90
0.37069 0.002202 0.062379 129 101 87
0.35569 0.002202 0.067379 132 119 110
0.35569 0.002202 0.072379 136 123 114
0.35569 0.007202 0.072379 153 138 132
0.36069 0.002202 0.067379 133 119 111
0.36069 0.002202 0.072379 137 122 114
0.36069 0.007202 0.072379 170 153 149
0.36069 0.002202 0.077379 141 125 118
0.36069 0.007202 0.077379 162 145 140
0.36569 0.002202 0.067379 129 110 101
0.36569 0.002202 0.072379 125 105 97
0.36569 0.007202 0.072379 161 133 127
0.37069 0.002202 0.067379 123 95 84
0.37069 0.002202 0.072379 118 85 74
0.37069 0.007202 0.072379 166 116 104
0.36569 0.002202 0.077379 131 113 106
0.36569 0.007202 0.077379 139 120 114
0.37069 0.002202 0.077379 118 78 68
0.37069 0.007202 0.077379 125 81 70
0.35569 0.017202 0.062379 141 125 129
0.36069 0.017202 0.062379 159 125 134
0.35569 0.027202 0.052379 125 97 66
0.36069 0.022202 0.047379 136 100 78
0.36069 0.022202 0.052379 130 100 83
0.36069 0.027202 0.047379 127 97 72
0.36069 0.027202 0.052379 126 97 69
0.35569 0.022202 0.057379 146 119 94
0.35569 0.022202 0.062379 173 151 148
0.35569 0.027202 0.057379 138 109 79
0.36069 0.022202 0.057379 167 146 138
0.36069 0.022202 0.062379 196 171 170
0.36069 0.027202 0.057379 133 105 75
0.37069 0.017202 0.052379 172 158 159
0.36569 0.017202 0.057379 144 122 137
0.36569 0.017202 0.062379 172 151 154
0.37069 0.012202 0.062379 100 60 53
0.37069 0.017202 0.057379 191 170 169
0.37069 0.017202 0.062379 190 154 155
0.36569 0.022202 0.047379 169 141 129
0.36569 0.022202 0.052379 196 172 167
0.37069 0.022202 0.047379 219 192 191
0.37069 0.022202 0.052379 186 166 162
0.36569 0.022202 0.057379 181 153 160
0.37069 0.022202 0.057379 155 128 143
0.35569 0.012202 0.072379 150 133 129
0.35569 0.017202 0.067379 149 133 130
0.35569 0.017202 0.072379 162 143 137
0.36069 0.012202 0.067379 135 123 117
0.36069 0.012202 0.072379 169 152 151
0.36069 0.017202 0.067379 149 133 136
0.36069 0.017202 0.072379 143 126 125
0.36569 0.012202 0.067379 200 174 172
0.36569 0.012202 0.072379 187 161 158
0.36569 0.017202 0.067379 198 175 178
0.37069 0.012202 0.067379 163 123 106
0.37069 0.012202 0.072379 176 135 113
0.37069 0.017202 0.067379 202 166 166
0.37569 0.002202 0.052379 136 107 91
0.37569 0.007202 0.047379 137 116 105
0.37569 0.007202 0.052379 138 108 92
0.38069 0.007202 0.047379 145 126 116
0.38069 0.007202 0.052379 134 104 87
0.37569 0.002202 0.057379 138 104 84
0.37569 0.002202 0.062379 132 96 79
0.37569 0.007202 0.057379 143 108 87
0.38069 0.002202 0.057379 143 106 84
0.38069 0.002202 0.062379 136 97 76
0.38069 0.007202 0.057379 158 122 96
0.38069 0.007202 0.062379 149 105 81
0.38569 0.007202 0.057379 163 127 102
0.38569 0.007202 0.062379 146 104 78
0.37569 0.002202 0.067379 124 88 74
0.37569 0.002202 0.072379 122 81 66
0.37569 0.007202 0.072379 176 133 105
0.38069 0.002202 0.067379 128 88 71
0.38069 0.002202 0.072379 123 82 68
0.38069 0.007202 0.067379 155 113 88
0.38069 0.007202 0.072379 142 96 76
0.37569 0.002202 0.077379 126 79 65
0.37569 0.007202 0.077379 137 90 73
0.38069 0.002202 0.077379 128 78 61
0.38069 0.007202 0.077379 128 80 55
0.38569 0.002202 0.067379 131 89 70
0.38569 0.007202 0.067379 140 99 73
0.38569 0.007202 0.072379 132 89 72
0.37569 0.017202 0.047379 170 147 138
0.37569 0.017202 0.052379 209 182 178
0.38069 0.012202 0.047379 167 151 142
0.38069 0.012202 0.052379 137 107 101
0.38069 0.017202 0.047379 154 140 132
0.38069 0.017202 0.052379 188 162 156
0.37569 0.012202 0.057379 130 101 82
0.37569 0.012202 0.062379 147 113 89
0.37569 0.017202 0.057379 175 143 135
0.37569 0.017202 0.062379 135 104 91
0.38069 0.012202 0.057379 151 119 92
0.38069 0.012202 0.062379 164 125 95
0.37569 0.022202 0.047379 195 179 173
0.37569 0.012202 0.067379 153 111 92
0.37569 0.012202 0.072379 161 119 99
0.38069 0.012202 0.067379 157 119 95
0.38069 0.012202 0.072379 169 124 104
0.35569 0.032202 0.017379 143 118 94
0.35569 0.032202 0.022379 146 120 95
0.35569 0.037202 0.017379 153 126 101
0.35569 0.037202 0.022379 144 117 92
0.36069 0.032202 0.022379 140 115 90
0.35569 0.042202 0.022379 138 113 88
0.35569 0.037202 0.027379 130 105 82
0.36069 0.032202 0.027379 139 114 87
0.36069 0.032202 0.032379 120 97 72
0.36069 0.037202 0.027379 134 110 85
0.36069 0.037202 0.032379 117 95 71
0.36069 0.032202 0.037379 116 93 67
0.36069 0.032202 0.042379 118 94 66
0.36069 0.037202 0.037379 113 91 67
0.36069 0.037202 0.042379 114 91 65
0.35569 0.042202 0.027379 125 102 78
0.35569 0.042202 0.032379 121 100 78
0.35569 0.047202 0.027379 125 105 85
0.35569 0.047202 0.032379 122 102 82
0.36069 0.042202 0.032379 116 95 73
0.36069 0.047202 0.032379 117 97 76
0.36069 0.042202 0.037379 115 93 69
0.36069 0.042202 0.042379 111 90 65
0.36069 0.047202 0.037379 113 93 71
0.36069 0.047202 0.042379 110 89 67
0.35569 0.052202 0.027379 128 107 88
0.35569 0.052202 0.032379 123 102 81
0.35569 0.057202 0.027379 133 111 89
0.35569 0.057202 0.032379 124 103 83
0.36069 0.052202 0.032379 122 100 78
0.35569 0.052202 0.037379 120 98 75
0.35569 0.057202 0.037379 119 97 75
0.35569 0.057202 0.042379 120 97 73
0.36069 0.052202 0.037379 116 96 74
0.36069 0.052202 0.042379 110 90 67
0.36069 0.057202 0.037379 118 98 76
0.36069 0.057202 0.042379 114 93 70
0.35569 0.062202 0.032379 128 106 84
0.35569 0.067202 0.032379 129 106 83
0.35569 0.062202 0.037379 124 102 79
0.35569 0.062202 0.042379 125 102 76
0.35569 0.067202 0.037379 129 105 81
0.35569 0.067202 0.042379 129 104 77
0.35569 0.032202 0.052379 123 98 72
0.35569 0.037202 0.052379 120 96 68
0.36069 0.032202 0.047379 119 94 66
0.36069 0.032202 0.052379 121 96 69
0.36069 0.037202 0.047379 117 92 64
0.36069 0.037202 0.052379 120 95 67
0.35569 0.032202 0.057379 127 101 72
0.35569 0.037202 0.057379 122 97 70
0.35569 0.042202 0.047379 116 94 71
0.35569 0.042202 0.052379 118 94 68
0.35569 0.047202 0.047379 119 95 68
0.35569 0.047202 0.052379 118 94 68
0.36069 0.042202 0.047379 114 92 67
0.36069 0.042202 0.052379 120 97 70
0.36069 0.047202 0.047379 113 90 65
0.35569 0.042202 0.057379 121 94 68
0.35569 0.047202 0.057379 120 95 70
0.35569 0.052202 0.047379 121 96 69
0.35569 0.052202 0.052379 122 98 72
0.35569 0.057202 0.047379 122 98 71
0.35569 0.057202 0.052379 124 99 71
0.36069 0.052202 0.047379 114 91 65
0.36069 0.057202 0.047379 117 94 67
0.35569 0.052202 0.057379 120 96 73
0.35569 0.062202 0.047379 128 101 73
0.35569 0.062202 0.052379 129 102 74
0.35569 0.067202 0.047379 131 105 77
0.35569 0.067202 0.052379 131 102 78
0.35569 0.072202 0.037379 130 106 81
0.35569 0.072202 0.042379 130 103 72
0.35569 0.072202 0.047379 131 104 76
0.27569 0.152202 0.022379 127 81 39
0.27569 0.157202 0.022379 136 63 0
0.28069 0.152202 0.022379 118 78 43
0.28069 0.157202 0.022379 135 57 2
0.27569 0.162202 0.022379 128 61 6
0.27569 0.167202 0.022379 105 102 102
0.28069 0.162202 0.022379 133 59 2
0.28069 0.167202 0.022379 110 104 101
0.28569 0.152202 0.022379 117 89 59
0.28569 0.157202 0.022379 136 56 3
0.29069 0.152202 0.022379 116 98 78
0.29069 0.157202 0.022379 137 64 5
0.28569 0.162202 0.022379 139 56 6
0.28569 0.167202 0.022379 122 103 91
0.29069 0.162202 0.022379 156 62 5
0.29069 0.167202 0.022379 136 102 82
0.27569 0.172202 0.022379 99 59 63
0.27569 0.177202 0.022379 111 88 71
0.28069 0.172202 0.022379 102 61 68
0.28069 0.177202 0.022379 129 87 73
0.27569 0.182202 0.022379 126 87 66
0.27569 0.187202 0.022379 117 84 84
0.28069 0.182202 0.022379 148 92 74
0.28069 0.187202 0.022379 138 84 76
0.28569 0.172202 0.022379 114 60 69
0.28569 0.177202 0.022379 146 75 76
0.29069 0.172202 0.022379 136 72 84
0.29069 0.177202 0.022379 149 59 81
0.28569 0.182202 0.022379 151 92 79
0.28569 0.187202 0.022379 168 99 82
0.29069 0.182202 0.022379 161 92 76
0.29069 0.187202 0.022379 182 126 93
0.29069 0.187202 0.027379 175 130 91
0.29569 0.152202 0.022379 121 102 82
0.29569 0.157202 0.022379 146 63 7
0.30069 0.152202 0.022379 129 109 89
0.30069 0.157202 0.022379 166 75 9
0.29569 0.162202 0.022379 174 69 7
0.29569 0.167202 0.022379 135 101 81
0.30069 0.162202 0.022379 170 72 8
0.30069 0.167202 0.022379 145 83 48
0.30569 0.152202 0.022379 134 116 97
0.30569 0.157202 0.022379 161 78 12
0.30069 0.162202 0.027379 167 72 8
0.30069 0.167202 0.027379 137 101 77
0.30569 0.152202 0.027379 154 129 100
0.30569 0.157202 0.027379 165 70 9
0.31069 0.152202 0.027379 142 117 87
0.31069 0.157202 0.027379 165 78 12
0.31069 0.157202 0.032379 167 80 10
0.30569 0.162202 0.027379 171 73 9
0.30569 0.167202 0.027379 141 102 75
0.31069 0.162202 0.027379 171 73 10
0.31069 0.162202 0.032379 172 76 11
0.31069 0.167202 0.027379 144 100 69
0.31069 0.167202 0.032379 142 116 102
0.31069 0.167202 0.037379 142 139 142
0.29569 0.172202 0.022379 139 78 93
0.29569 0.177202 0.022379 148 54 79
0.29569 0.182202 0.022379 171 102 85
0.29569 0.172202 0.027379 141 48 76
0.29569 0.177202 0.027379 152 68 81
0.30069 0.172202 0.027379 143 98 101
0.30069 0.177202 0.027379 159 96 92
0.29569 0.182202 0.027379 174 114 98
0.29569 0.187202 0.027379 162 130 103
0.30069 0.182202 0.027379 158 110 109
0.30069 0.182202 0.032379 165 143 134
0.30069 0.187202 0.027379 147 129 123
0.30069 0.187202 0.032379 156 126 116
0.30569 0.172202 0.027379 152 139 135
0.30569 0.172202 0.032379 145 133 133
0.30569 0.177202 0.027379 160 139 136
0.30569 0.177202 0.032379 140 125 130
0.31069 0.172202 0.032379 131 98 110
0.31069 0.177202 0.032379 95 103 123
0.31069 0.172202 0.037379 83 88 112
0.31069 0.177202 0.037379 53 98 132
0.31069 0.177202 0.042379 68 111 144
0.30569 0.182202 0.027379 157 150 148
0.30569 0.182202 0.032379 130 112 120
0.30569 0.187202 0.032379 145 115 105
0.31069 0.182202 0.032379 70 99 130
0.30569 0.182202 0.037379 121 93 111
0.30569 0.187202 0.037379 136 116 112
0.31069 0.182202 0.037379 65 104 136
0.31069 0.182202 0.042379 83 119 149
0.31069 0.187202 0.037379 125 123 131
0.31069 0.187202 0.042379 120 119 127
0.30569 0.152202 0.062379 119 52 51
0.30569 0.157202 0.062379 99 50 51
0.31069 0.152202 0.057379 106 84 102
0.31069 0.152202 0.062379 129 55 62
0.31069 0.157202 0.057379 69 64 93
0.31069 0.157202 0.062379 105 51 55
0.31069 0.167202 0.052379 69 96 123
0.30569 0.162202 0.062379 100 54 57
0.30569 0.167202 0.062379 101 83 93
0.31069 0.162202 0.057379 90 58 75
0.31069 0.162202 0.062379 106 53 58
0.31069 0.167202 0.057379 100 81 94
0.31069 0.167202 0.062379 111 86 92
0.30069 0.152202 0.067379 101 57 56
0.30069 0.152202 0.072379 92 56 64
0.30069 0.157202 0.067379 101 49 48
0.30069 0.157202 0.072379 101 79 86
0.29569 0.152202 0.082379 44 79 110
0.29569 0.157202 0.082379 48 46 56
0.30069 0.152202 0.077379 44 75 110
0.30069 0.152202 0.082379 38 81 117
0.30069 0.157202 0.077379 58 65 87
0.30069 0.157202 0.082379 40 46 66
0.30069 0.162202 0.067379 99 74 91
0.30069 0.162202 0.072379 102 76 94
0.30069 0.167202 0.067379 98 75 95
0.30069 0.167202 0.072379 107 70 90
0.29569 0.162202 0.077379 74 50 63
0.29569 0.162202 0.082379 51 43 52
0.29569 0.167202 0.077379 136 53 50
0.29569 0.167202 0.082379 88 39 49
0.30069 0.162202 0.077379 89 60 83
0.30069 0.167202 0.077379 139 68 67
0.30569 0.152202 0.067379 107 48 47
0.30569 0.157202 0.067379 102 48 47
0.30569 0.162202 0.067379 97 52 57
0.30569 0.167202 0.067379 98 79 94
0.30069 0.187202 0.062379 153 61 77
0.31069 0.172202 0.052379 85 100 119
0.31069 0.177202 0.047379 62 108 143
0.31069 0.177202 0.052379 93 100 120
0.30569 0.172202 0.062379 101 78 97
0.30569 0.177202 0.062379 134 69 78
0.31069 0.172202 0.057379 98 92 105
0.31069 0.177202 0.057379 106 88 97
0.31069 0.177202 0.062379 115 83 98
0.31069 0.182202 0.047379 98 111 131
0.31069 0.182202 0.052379 147 98 95
0.31069 0.187202 0.047379 153 103 90
0.31069 0.187202 0.052379 167 100 77
0.30569 0.182202 0.057379 154 79 61
0.30569 0.182202 0.062379 153 63 66
0.30569 0.187202 0.057379 160 72 75
0.30569 0.187202 0.062379 156 65 69
0.31069 0.182202 0.057379 153 86 69
0.31069 0.182202 0.062379 154 74 68
0.31069 0.187202 0.057379 162 82 75
0.30069 0.172202 0.067379 108 66 90
0.30069 0.172202 0.072379 134 60 66
0.30069 0.177202 0.067379 148 54 44
0.30069 0.177202 0.072379 135 59 49
0.29569 0.172202 0.077379 139 55 43
0.29569 0.172202 0.082379 121 43 53
0.29569 0.177202 0.077379 115 58 49
0.29569 0.177202 0.082379 112 39 53
0.30069 0.172202 0.077379 149 62 50
0.30069 0.177202 0.077379 125 67 56
0.29569 0.182202 0.072379 114 51 50
0.29569 0.187202 0.072379 113 39 56
0.30069 0.182202 0.067379 146 52 53
0.30069 0.182202 0.072379 122 62 53
0.30069 0.187202 0.067379 134 37 56
0.30069 0.187202 0.072379 114 42 52
0.29569 0.182202 0.077379 108 38 51
0.29569 0.182202 0.082379 111 35 55
0.29569 0.187202 0.077379 110 42 57
0.29569 0.187202 0.082379 101 37 48
0.30569 0.172202 0.067379 103 71 93
0.30569 0.177202 0.067379 142 60 59
0.30569 0.182202 0.067379 147 43 51
0.30569 0.187202 0.067379 149 55 60
0.27569 0.192202 0.022379 100 89 103
0.27569 0.197202 0.022379 107 92 106
0.28069 0.192202 0.022379 109 97 110
0.28069 0.197202 0.022379 118 116 127
0.27569 0.202202 0.022379 123 84 89
0.27569 0.207202 0.022379 130 84 85
0.28069 0.202202 0.022379 120 113 120
0.28069 0.207202 0.022379 114 91 99
0.28569 0.192202 0.022379 141 107 104
0.28569 0.197202 0.022379 119 121 132
0.29069 0.192202 0.022379 165 126 99
0.28569 0.202202 0.022379 109 113 126
0.28569 0.207202 0.022379 80 84 99
0.28069 0.207202 0.027379 63 102 133
0.28569 0.192202 0.027379 121 118 125
0.28569 0.197202 0.027379 111 116 128
0.29069 0.192202 0.027379 149 120 97
0.29069 0.197202 0.027379 91 115 138
0.28569 0.202202 0.027379 90 118 143
0.28569 0.207202 0.027379 71 112 146
0.29069 0.202202 0.027379 84 126 160
0.29069 0.207202 0.027379 91 121 149
0.29069 0.207202 0.032379 121 118 127
0.27569 0.212202 0.022379 139 88 94
0.27569 0.217202 0.022379 118 97 110
0.28069 0.212202 0.022379 83 97 121
0.28069 0.217202 0.022379 116 107 119
0.27569 0.222202 0.022379 115 96 112
0.27569 0.227202 0.022379 127 119 132
0.28069 0.212202 0.027379 75 108 139
0.28069 0.217202 0.027379 120 106 122
0.27569 0.222202 0.027379 130 109 126
0.27569 0.227202 0.027379 136 102 113
0.28069 0.222202 0.027379 138 90 103
0.28069 0.227202 0.027379 147 102 107
0.28069 0.227202 0.032379 144 140 141
0.28569 0.212202 0.027379 85 109 133
0.28569 0.217202 0.027379 117 107 115
0.28569 0.217202 0.032379 87 119 146
0.29069 0.212202 0.027379 111 113 126
0.29069 0.212202 0.032379 90 108 129
0.29069 0.217202 0.032379 76 116 147
0.28569 0.222202 0.027379 130 115 121
0.28569 0.222202 0.032379 82 122 154
0.28569 0.227202 0.027379 140 137 144
0.28569 0.227202 0.032379 109 124 142
0.29069 0.222202 0.032379 90 117 141
0.29069 0.227202 0.032379 115 115 125
0.29069 0.222202 0.037379 117 119 127
0.29069 0.227202 0.037379 123 118 125
0.29569 0.192202 0.027379 135 126 122
0.29569 0.192202 0.032379 151 130 129
0.29569 0.197202 0.027379 104 127 146
0.29569 0.197202 0.032379 155 116 122
0.30069 0.192202 0.027379 151 145 144
0.30069 0.192202 0.032379 149 116 111
0.30069 0.197202 0.032379 140 92 108
0.30069 0.197202 0.037379 123 107 122
0.29569 0.202202 0.027379 111 127 148
0.29569 0.202202 0.032379 141 104 115
0.29569 0.207202 0.032379 101 110 129
0.30069 0.202202 0.032379 126 101 117
0.30069 0.207202 0.032379 133 119 138
0.29569 0.207202 0.037379 76 108 137
0.30069 0.202202 0.037379 120 109 127
0.30069 0.207202 0.037379 119 99 120
0.30069 0.207202 0.042379 165 83 93
0.30569 0.192202 0.032379 137 112 105
0.30569 0.192202 0.037379 128 127 136
0.30569 0.197202 0.037379 124 107 125
0.30569 0.197202 0.042379 140 91 113
0.31069 0.192202 0.037379 137 138 147
0.31069 0.192202 0.042379 135 125 130
0.31069 0.197202 0.042379 161 99 102
0.30569 0.202202 0.037379 127 103 124
0.30569 0.202202 0.042379 164 82 97
0.30569 0.207202 0.037379 152 89 97
0.30569 0.207202 0.042379 169 86 89
0.29569 0.212202 0.032379 66 107 140
0.29569 0.217202 0.032379 59 97 127
0.29569 0.212202 0.037379 96 102 122
0.29569 0.217202 0.037379 119 104 111
0.29569 0.217202 0.042379 143 133 136
0.30069 0.212202 0.037379 142 99 99
0.30069 0.212202 0.042379 149 93 93
0.30069 0.217202 0.037379 144 99 104
0.30069 0.217202 0.042379 137 92 100
0.29569 0.222202 0.037379 123 123 131
0.29569 0.222202 0.042379 118 119 136
0.29569 0.227202 0.037379 124 122 134
0.29569 0.227202 0.042379 122 105 123
0.30069 0.222202 0.042379 119 108 126
0.30069 0.227202 0.042379 118 102 119
0.30569 0.212202 0.042379 153 95 89
0.29069 0.207202 0.082379 50 84 120
0.29069 0.217202 0.082379 75 77 113
0.29069 0.222202 0.082379 103 72 93
0.29069 0.227202 0.082379 128 37 72
0.30069 0.192202 0.062379 145 32 68
0.30069 0.197202 0.062379 142 41 69
0.30069 0.202202 0.062379 107 44 67
0.30069 0.207202 0.062379 67 43 67
0.30569 0.192202 0.052379 160 68 81
0.30569 0.197202 0.047379 168 84 93
0.30569 0.197202 0.052379 159 56 82
0.31069 0.192202 0.047379 169 107 87
0.31069 0.192202 0.052379 165 96 81
0.31069 0.197202 0.047379 168 76 81
0.31069 0.197202 0.052379 162 71 79
0.30569 0.192202 0.057379 154 49 75
0.30569 0.192202 0.062379 147 38 68
0.30569 0.197202 0.057379 153 42 79
0.30569 0.197202 0.062379 144 30 69
0.31069 0.192202 0.057379 168 101 81
0.30569 0.202202 0.047379 168 79 89
0.30569 0.202202 0.052379 160 51 85
0.30569 0.207202 0.047379 160 71 84
0.30569 0.207202 0.052379 146 54 89
0.30569 0.202202 0.057379 155 50 83
0.30569 0.202202 0.062379 140 44 72
0.30569 0.207202 0.057379 132 52 81
0.30569 0.207202 0.062379 121 47 71
0.29569 0.192202 0.067379 114 37 60
0.29569 0.192202 0.072379 111 40 56
0.29569 0.197202 0.067379 85 42 59
0.29569 0.197202 0.072379 82 40 52
0.30069 0.192202 0.067379 123 35 60
0.30069 0.197202 0.067379 117 39 61
0.29569 0.192202 0.077379 101 42 49
0.29569 0.192202 0.082379 78 41 45
0.29569 0.197202 0.077379 60 45 51
0.29569 0.197202 0.082379 48 43 50
0.29569 0.202202 0.067379 57 40 63
0.29569 0.202202 0.072379 55 42 58
0.29569 0.207202 0.067379 56 41 64
0.29569 0.207202 0.072379 52 41 62
0.30069 0.202202 0.067379 66 38 62
0.30069 0.207202 0.067379 58 40 66
0.29569 0.202202 0.077379 53 46 56
0.29569 0.202202 0.082379 51 53 69
0.29569 0.207202 0.077379 53 58 79
0.29569 0.207202 0.082379 48 72 105
0.30069 0.212202 0.047379 147 54 78
0.30069 0.217202 0.047379 137 73 98
0.30069 0.217202 0.052379 123 94 117
0.30069 0.212202 0.062379 63 48 75
0.30069 0.217202 0.057379 85 93 119
0.30069 0.217202 0.062379 57 81 112
0.30069 0.222202 0.047379 120 103 127
0.30069 0.222202 0.052379 116 97 122
0.30069 0.227202 0.047379 120 102 125
0.30069 0.227202 0.052379 97 96 122
0.30069 0.222202 0.057379 69 90 121
0.30069 0.222202 0.062379 56 85 118
0.30069 0.227202 0.057379 65 91 121
0.30069 0.227202 0.062379 82 86 109
0.30569 0.212202 0.047379 146 66 86
0.30569 0.212202 0.052379 134 55 83
0.30569 0.217202 0.047379 143 54 80
0.30569 0.217202 0.052379 133 65 95
0.30569 0.212202 0.057379 126 51 77
0.30569 0.212202 0.062379 98 56 77
0.30569 0.217202 0.057379 113 77 101
0.29569 0.212202 0.067379 52 59 88
0.29569 0.212202 0.072379 51 66 98
0.29569 0.217202 0.067379 48 71 107
0.29569 0.217202 0.072379 49 69 105
0.30069 0.212202 0.067379 60 52 81
0.30069 0.217202 0.067379 45 67 102
0.29569 0.212202 0.077379 46 67 105
0.29569 0.212202 0.082379 42 80 122
0.29569 0.217202 0.077379 50 78 118
0.29569 0.217202 0.082379 50 82 125
0.29569 0.222202 0.067379 54 79 113
0.29569 0.222202 0.072379 71 71 98
0.29569 0.227202 0.067379 104 69 76
0.29569 0.227202 0.072379 118 75 79
0.30069 0.222202 0.067379 65 87 116
0.30069 0.227202 0.067379 80 73 89
0.29569 0.222202 0.077379 96 83 106
0.29569 0.222202 0.082379 102 69 92
0.29569 0.227202 0.077379 101 76 101
0.29569 0.227202 0.082379 120 56 81
0.31569 0.152202 0.027379 153 134 114
0.31569 0.152202 0.032379 145 99 51
0.31569 0.157202 0.027379 156 86 11
0.31569 0.157202 0.032379 165 73 9
0.32069 0.152202 0.032379 142 110 67
0.31569 0.152202 0.037379 161 80 10
0.31569 0.157202 0.037379 170 79 11
0.31569 0.157202 0.042379 164 77 22
0.32069 0.152202 0.037379 162 75 11
0.32069 0.152202 0.042379 172 74 9
0.32069 0.157202 0.037379 168 72 9
0.32069 0.157202 0.042379 172 78 10
0.31569 0.162202 0.032379 171 73 11
0.31569 0.167202 0.032379 142 106 91
0.31569 0.162202 0.037379 162 84 31
0.31569 0.162202 0.042379 130 116 114
0.31569 0.167202 0.037379 119 120 131
0.31569 0.167202 0.042379 69 72 100
0.31569 0.172202 0.037379 76 74 99
0.31569 0.172202 0.042379 65 98 130
0.31569 0.177202 0.037379 64 105 139
0.31569 0.177202 0.042379 70 113 147
0.31569 0.152202 0.047379 168 75 10
0.31569 0.152202 0.052379 146 84 54
0.31569 0.157202 0.047379 135 104 88
0.31569 0.157202 0.052379 92 104 122
0.32069 0.152202 0.047379 167 77 8
0.31569 0.152202 0.057379 125 122 130
0.31569 0.157202 0.057379 60 68 99
0.31569 0.162202 0.047379 73 98 124
0.31569 0.162202 0.052379 44 69 104
0.31569 0.167202 0.047379 46 81 118
0.31569 0.167202 0.052379 46 76 109
0.31569 0.162202 0.057379 46 71 102
0.31569 0.172202 0.047379 66 111 145
0.31569 0.172202 0.052379 68 108 139
0.31569 0.177202 0.047379 67 112 146
0.27569 0.232202 0.027379 156 115 110
0.27569 0.237202 0.027379 158 115 119
0.28069 0.232202 0.027379 156 126 120
0.28069 0.232202 0.032379 146 142 145
0.28069 0.237202 0.027379 174 144 139
0.28069 0.237202 0.032379 156 128 113
0.27569 0.242202 0.027379 159 120 131
0.27569 0.242202 0.032379 167 143 144
0.27569 0.247202 0.027379 154 125 139
0.27569 0.247202 0.032379 175 139 138
0.28069 0.242202 0.032379 172 106 106
0.28069 0.247202 0.032379 180 104 105
0.28069 0.242202 0.037379 180 86 100
0.28069 0.247202 0.037379 174 75 99
0.28569 0.232202 0.032379 154 121 105
0.28569 0.237202 0.032379 177 129 96
0.28569 0.232202 0.037379 174 129 96
0.28569 0.237202 0.037379 178 121 95
0.29069 0.232202 0.037379 169 119 101
0.29069 0.232202 0.042379 175 102 96
0.29069 0.237202 0.037379 171 99 93
0.29069 0.237202 0.042379 178 97 94
0.28569 0.242202 0.032379 181 132 107
0.28569 0.242202 0.037379 176 85 94
0.28569 0.242202 0.042379 177 63 99
0.28569 0.247202 0.037379 175 64 105
0.28569 0.247202 0.042379 173 63 96
0.29069 0.242202 0.037379 174 101 97
0.29069 0.242202 0.042379 180 99 109
0.29069 0.247202 0.042379 178 66 94
0.27569 0.252202 0.032379 151 50 83
0.27569 0.257202 0.032379 155 41 89
0.28069 0.252202 0.032379 152 0 51
0.27569 0.252202 0.037379 137 105 123
0.27569 0.257202 0.037379 149 68 103
0.28069 0.252202 0.037379 148 51 87
0.28069 0.257202 0.037379 152 62 101
0.28069 0.257202 0.042379 137 84 120
0.27569 0.262202 0.037379 138 109 117
0.27569 0.262202 0.042379 127 63 77
0.27569 0.267202 0.037379 186 178 179
0.27569 0.267202 0.042379 185 166 166
0.28069 0.262202 0.037379 100 151 186
0.28069 0.262202 0.042379 95 141 178
0.28069 0.267202 0.042379 136 71 89
0.28569 0.252202 0.037379 152 17 65
0.28569 0.252202 0.042379 150 51 92
0.28569 0.257202 0.042379 156 47 94
0.29569 0.232202 0.037379 133 92 105
0.29569 0.232202 0.042379 160 99 107
0.29569 0.237202 0.042379 178 97 100
0.29069 0.242202 0.047379 177 96 98
0.29069 0.247202 0.047379 165 58 91
0.29069 0.247202 0.052379 160 36 82
0.29069 0.247202 0.057379 146 78 108
0.29069 0.247202 0.062379 142 46 91
0.29069 0.232202 0.072379 113 43 79
0.29069 0.237202 0.072379 122 75 97
0.29069 0.232202 0.077379 124 54 84
0.29069 0.232202 0.082379 126 64 91
0.29069 0.237202 0.077379 126 54 87
0.29069 0.237202 0.082379 116 82 112
0.29069 0.242202 0.072379 143 32 84
0.29069 0.247202 0.067379 152 47 92
0.29069 0.247202 0.072379 160 127 134
0.28569 0.247202 0.082379 88 127 160
0.29069 0.242202 0.077379 125 79 106
0.29069 0.242202 0.082379 87 124 156
0.29069 0.247202 0.077379 102 91 107
0.29069 0.247202 0.082379 87 129 162
0.27569 0.267202 0.047379 206 196 193
0.28069 0.262202 0.047379 94 144 184
0.28069 0.267202 0.047379 127 106 123
0.28069 0.267202 0.052379 102 125 151
0.28069 0.267202 0.057379 86 128 159
0.28569 0.252202 0.047379 150 77 111
0.28569 0.252202 0.052379 178 21 76
0.28569 0.257202 0.047379 141 81 121
0.28569 0.257202 0.052379 112 126 159
0.29069 0.252202 0.047379 154 50 92
0.29069 0.252202 0.052379 157 62 103
0.29069 0.257202 0.052379 154 81 114
0.28569 0.257202 0.057379 90 139 178
0.28569 0.257202 0.062379 88 134 169
0.29069 0.252202 0.057379 159 50 98
0.29069 0.252202 0.062379 171 102 124
0.29069 0.257202 0.057379 106 130 156
0.29069 0.257202 0.062379 119 73 94
0.28569 0.262202 0.047379 93 146 187
0.28569 0.262202 0.052379 91 139 179
0.28569 0.267202 0.052379 87 136 175
0.28569 0.262202 0.057379 84 135 175
0.28569 0.262202 0.062379 84 131 169
0.28569 0.267202 0.057379 85 133 171
0.28569 0.267202 0.062379 82 131 170
0.28069 0.267202 0.082379 89 121 150
0.28569 0.252202 0.072379 103 71 81
0.28569 0.257202 0.067379 101 100 123
0.28569 0.257202 0.072379 101 91 108
0.29069 0.252202 0.067379 172 157 159
0.29069 0.252202 0.072379 154 127 132
0.29069 0.257202 0.067379 136 82 92
0.29069 0.257202 0.072379 150 123 127
0.28569 0.252202 0.077379 86 118 147
0.28569 0.252202 0.082379 80 124 159
0.28569 0.257202 0.077379 84 124 156
0.28569 0.257202 0.082379 78 121 156
0.29069 0.252202 0.077379 103 88 99
0.28569 0.262202 0.067379 81 128 165
0.28569 0.262202 0.072379 84 129 165
0.28569 0.267202 0.067379 83 127 164
0.28569 0.267202 0.072379 80 120 153
0.28569 0.262202 0.077379 81 126 162
0.28569 0.262202 0.082379 76 116 149
0.28569 0.267202 0.077379 80 121 156
0.28569 0.267202 0.082379 75 119 155
0.29569 0.232202 0.047379 156 98 110
0.29569 0.232202 0.052379 147 102 96
0.29569 0.237202 0.047379 177 103 105
0.29569 0.237202 0.052379 145 101 100
0.30069 0.232202 0.047379 130 89 119
0.30069 0.232202 0.052379 129 100 107
0.29569 0.232202 0.062379 133 92 82
0.29569 0.237202 0.057379 140 100 95
0.29569 0.237202 0.062379 125 83 84
0.30069 0.232202 0.057379 128 90 94
0.30069 0.232202 0.062379 131 91 86
0.30069 0.237202 0.057379 143 98 95
0.29569 0.242202 0.047379 166 108 106
0.29569 0.242202 0.052379 153 86 103
0.29569 0.247202 0.052379 152 56 89
0.29569 0.242202 0.057379 129 60 84
0.29569 0.242202 0.062379 126 41 80
0.29569 0.247202 0.057379 155 32 82
0.29569 0.247202 0.062379 135 91 113
0.29569 0.232202 0.067379 119 79 78
0.29569 0.232202 0.072379 86 67 91
0.29569 0.237202 0.067379 111 50 77
0.29569 0.237202 0.072379 124 48 80
0.29569 0.232202 0.077379 96 78 102
0.29569 0.232202 0.082379 129 20 65
0.29569 0.242202 0.067379 124 65 92
0.29569 0.242202 0.072379 126 65 98
0.29569 0.247202 0.067379 121 58 92
0.27569 0.272202 0.042379 200 189 187
0.27569 0.272202 0.047379 195 186 186
0.27569 0.272202 0.052379 200 190 189
0.27569 0.277202 0.047379 195 186 186
0.27569 0.277202 0.052379 190 183 186
0.28069 0.272202 0.047379 171 163 163
0.28069 0.272202 0.052379 173 143 144
0.28069 0.277202 0.052379 184 178 180
0.27569 0.277202 0.057379 197 188 188
0.28069 0.272202 0.057379 138 99 106
0.28069 0.272202 0.062379 110 93 106
0.28069 0.277202 0.057379 185 177 178
0.28069 0.277202 0.062379 166 160 161
0.27569 0.282202 0.047379 197 190 192
0.27569 0.282202 0.052379 193 186 188
0.27569 0.287202 0.052379 175 177 188
0.27569 0.282202 0.057379 191 184 187
0.27569 0.287202 0.057379 187 184 190
0.27569 0.287202 0.062379 188 183 187
0.28069 0.282202 0.057379 185 178 181
0.28069 0.282202 0.062379 175 169 171
0.28069 0.287202 0.062379 177 172 176
0.28569 0.272202 0.062379 87 135 172
0.28069 0.272202 0.067379 99 101 120
0.28069 0.272202 0.072379 90 108 124
0.28069 0.277202 0.067379 144 118 117
0.28069 0.277202 0.072379 125 90 95
0.28069 0.272202 0.082379 72 114 148
0.28069 0.277202 0.077379 132 111 102
0.28069 0.277202 0.082379 89 93 114
0.28069 0.282202 0.067379 157 153 157
0.28069 0.282202 0.072379 152 149 153
0.28069 0.287202 0.067379 172 168 171
0.28069 0.287202 0.072379 154 150 153
0.28069 0.282202 0.077379 154 150 152
0.28069 0.282202 0.082379 140 122 124
0.28069 0.287202 0.077379 154 151 154
0.28069 0.287202 0.082379 152 148 150
0.28569 0.272202 0.067379 83 128 162
0.28569 0.272202 0.072379 80 119 152
0.28569 0.277202 0.072379 99 87 99
0.28569 0.272202 0.077379 79 122 156
0.28569 0.272202 0.082379 79 119 152
0.28569 0.277202 0.077379 94 92 111
0.28569 0.277202 0.082379 88 100 126
0.28569 0.282202 0.077379 136 108 102
0.28569 0.282202 0.082379 133 82 82
0.27569 0.292202 0.052379 147 165 190
0.27569 0.292202 0.057379 153 168 189
0.27569 0.292202 0.062379 160 169 185
0.27569 0.297202 0.057379 130 154 182
0.27569 0.297202 0.062379 130 151 176
0.27569 0.302202 0.062379 124 80 96
0.27569 0.292202 0.067379 154 162 176
0.27569 0.297202 0.067379 126 147 173
0.27569 0.297202 0.072379 97 125 154
0.28069 0.292202 0.067379 171 170 177
0.28069 0.292202 0.072379 162 160 166
0.28069 0.297202 0.072379 111 131 156
0.28069 0.292202 0.077379 149 147 152
0.28069 0.292202 0.082379 154 150 154
0.28069 0.297202 0.077379 128 138 153
0.28069 0.297202 0.082379 143 144 152
0.27569 0.302202 0.067379 147 158 178
0.27569 0.302202 0.072379 119 144 172
0.27569 0.307202 0.067379 107 139 172
0.27569 0.307202 0.072379 119 145 174
0.28069 0.302202 0.072379 103 129 162
0.27569 0.302202 0.077379 103 129 159
0.27569 0.307202 0.077379 138 150 168
0.28069 0.302202 0.077379 116 136 159
0.28069 0.302202 0.082379 120 135 153
0.28069 0.307202 0.077379 144 152 166
0.28069 0.307202 0.082379 127 142 160
0.27569 0.102202 0.122379 111 88 73
0.27569 0.107202 0.117379 114 82 63
0.27569 0.107202 0.122379 110 87 71
0.28069 0.107202 0.122379 108 88 75
0.27569 0.102202 0.127379 104 91 81
0.27569 0.102202 0.132379 99 89 82
0.27569 0.107202 0.127379 120 70 30
0.27569 0.107202 0.132379 121 67 15
0.28069 0.102202 0.127379 104 92 84
0.28069 0.102202 0.132379 104 94 87
0.28069 0.107202 0.127379 107 92 81
0.28069 0.107202 0.132379 107 96 87
0.27569 0.102202 0.137379 99 90 84
0.27569 0.107202 0.137379 119 76 39
0.27569 0.107202 0.142379 119 78 42
0.28069 0.102202 0.137379 106 96 89
0.28069 0.102202 0.142379 109 99 91
0.28069 0.107202 0.142379 118 91 62
0.28569 0.102202 0.132379 111 100 92
0.28569 0.107202 0.127379 110 94 83
0.28569 0.107202 0.132379 115 103 92
0.28569 0.102202 0.137379 114 103 95
0.28569 0.102202 0.142379 115 103 94
0.28569 0.107202 0.137379 120 108 98
0.28569 0.107202 0.142379 121 103 89
0.27569 0.112202 0.087379 142 103 87
0.27569 0.112202 0.092379 131 104 90
0.28069 0.112202 0.087379 128 104 93
0.28069 0.112202 0.092379 121 102 92
0.27569 0.112202 0.097379 114 95 85
0.27569 0.112202 0.102379 97 80 73
0.28069 0.112202 0.097379 102 90 83
0.28069 0.112202 0.102379 86 76 69
0.28569 0.112202 0.087379 120 106 97
0.28569 0.112202 0.092379 117 105 97
0.28569 0.117202 0.087379 120 108 99
0.29069 0.112202 0.087379 120 109 100
0.29069 0.112202 0.092379 120 109 100
0.29069 0.117202 0.087379 121 109 101
0.28569 0.112202 0.097379 105 95 87
0.28569 0.112202 0.102379 89 81 73
0.29069 0.112202 0.097379 114 104 94
0.29069 0.112202 0.102379 101 92 83
0.27569 0.112202 0.107379 92 76 68
0.27569 0.117202 0.107379 99 79 69
0.27569 0.117202 0.112379 100 79 68
0.28069 0.112202 0.107379 80 68 60
0.28069 0.117202 0.107379 83 69 60
0.28069 0.117202 0.112379 88 73 62
0.27569 0.112202 0.117379 109 79 63
0.27569 0.112202 0.122379 107 83 67
0.27569 0.117202 0.117379 100 79 67
0.27569 0.117202 0.122379 100 80 65
0.28069 0.112202 0.122379 105 85 69
0.28069 0.117202 0.117379 95 78 66
0.28069 0.117202 0.122379 100 80 66
0.27569 0.122202 0.117379 99 83 71
0.27569 0.127202 0.117379 111 78 59
0.27569 0.127202 0.122379 118 68 48
0.28069 0.122202 0.117379 101 85 74
0.28069 0.122202 0.122379 101 83 73
0.28069 0.127202 0.117379 108 83 70
0.28069 0.127202 0.122379 109 81 68
0.28569 0.112202 0.107379 79 69 62
0.28569 0.112202 0.112379 76 66 58
0.28569 0.117202 0.112379 78 66 57
0.29069 0.112202 0.107379 87 79 71
0.29069 0.112202 0.112379 80 71 63
0.29069 0.117202 0.112379 76 67 60
0.28569 0.117202 0.117379 80 67 57
0.29069 0.117202 0.117379 74 64 55
0.28569 0.122202 0.117379 90 76 65
0.28569 0.127202 0.117379 103 88 78
0.28569 0.127202 0.122379 98 82 69
0.29069 0.122202 0.117379 88 69 55
0.29069 0.122202 0.122379 90 72 53
0.29069 0.127202 0.122379 92 70 51
0.27569 0.132202 0.122379 125 49 17
0.27569 0.137202 0.122379 119 34 23
0.28069 0.132202 0.117379 119 66 35
0.28069 0.132202 0.122379 124 57 21
0.28069 0.137202 0.122379 118 54 25
0.27569 0.142202 0.122379 85 41 47
0.27569 0.147202 0.122379 66 42 59
0.28069 0.142202 0.122379 104 62 48
0.28069 0.147202 0.122379 72 62 72
0.28569 0.132202 0.117379 111 75 56
0.28569 0.132202 0.122379 108 69 41
0.28569 0.137202 0.122379 111 63 31
0.29069 0.132202 0.122379 99 68 48
0.28569 0.142202 0.122379 103 65 51
0.28569 0.147202 0.122379 84 67 72
0.29569 0.112202 0.087379 121 111 102
0.29569 0.112202 0.092379 123 112 102
0.29569 0.117202 0.087379 121 111 102
0.29569 0.117202 0.092379 123 112 103
0.30069 0.112202 0.092379 125 114 103
0.30069 0.117202 0.087379 121 111 102
0.30069 0.117202 0.092379 123 112 102
0.29569 0.112202 0.097379 121 110 100
0.29569 0.112202 0.102379 114 104 94
0.30069 0.112202 0.097379 125 113 103
0.30069 0.112202 0.102379 122 111 101
0.30069 0.117202 0.097379 125 113 103
0.30069 0.117202 0.102379 124 113 103
0.30069 0.127202 0.092379 162 80 9
0.30069 0.127202 0.097379 159 73 8
0.30569 0.117202 0.087379 121 110 101
0.30569 0.117202 0.092379 123 111 101
0.31069 0.117202 0.087379 112 103 95
0.31069 0.117202 0.092379 138 122 107
0.30569 0.117202 0.097379 121 110 99
0.30569 0.117202 0.102379 124 112 101
0.30569 0.122202 0.087379 158 81 13
0.30569 0.122202 0.092379 152 87 28
0.30569 0.127202 0.087379 162 78 8
0.30569 0.127202 0.092379 161 77 7
0.31069 0.122202 0.087379 131 105 78
0.31069 0.122202 0.092379 136 117 98
0.30569 0.122202 0.097379 154 81 18
0.30569 0.122202 0.102379 151 80 18
0.30569 0.127202 0.097379 157 73 6
0.30569 0.127202 0.102379 154 73 6
0.29569 0.112202 0.107379 102 93 84
0.29569 0.112202 0.112379 94 84 75
0.29569 0.117202 0.112379 90 80 71
0.30069 0.112202 0.107379 115 104 94
0.30069 0.112202 0.112379 106 95 84
0.30069 0.117202 0.107379 119 108 97
0.30069 0.117202 0.112379 107 95 84
0.29569 0.117202 0.117379 76 67 60
0.29569 0.117202 0.122379 76 66 58
0.30069 0.112202 0.117379 105 93 81
0.30069 0.117202 0.117379 96 84 74
0.30069 0.117202 0.122379 85 74 65
0.29569 0.122202 0.117379 77 64 55
0.29569 0.122202 0.122379 73 59 48
0.29569 0.127202 0.122379 84 52 29
0.30069 0.122202 0.122379 77 62 50
0.30569 0.112202 0.112379 112 99 87
0.30569 0.117202 0.107379 126 113 101
0.30569 0.117202 0.112379 120 106 94
0.31069 0.117202 0.107379 135 118 99
0.31069 0.117202 0.112379 131 113 95
0.30569 0.112202 0.117379 109 96 85
0.30569 0.117202 0.117379 112 99 86
0.30569 0.117202 0.122379 106 94 82
0.31069 0.117202 0.117379 126 108 91
0.31069 0.117202 0.122379 121 105 91
0.30569 0.122202 0.107379 151 79 16
0.30569 0.122202 0.112379 158 75 9
0.30569 0.127202 0.107379 155 74 7
0.30569 0.127202 0.112379 153 72 7
0.31069 0.122202 0.107379 145 90 33
0.31069 0.122202 0.112379 154 79 17
0.31069 0.127202 0.112379 155 76 8
0.31069 0.122202 0.117379 158 83 18
0.31069 0.122202 0.122379 153 84 21
0.31069 0.127202 0.117379 152 72 8
0.31069 0.127202 0.122379 154 74 7
0.30069 0.132202 0.087379 130 115 104
0.30069 0.132202 0.092379 143 93 58
0.30069 0.137202 0.087379 109 92 100
0.30069 0.137202 0.092379 92 104 127
0.30069 0.132202 0.097379 136 102 79
0.30069 0.132202 0.102379 121 119 120
0.30069 0.137202 0.097379 78 105 131
0.30069 0.137202 0.102379 71 96 121
0.29569 0.147202 0.087379 38 79 121
0.29569 0.147202 0.092379 39 77 112
0.30069 0.142202 0.087379 69 75 102
0.30069 0.142202 0.092379 98 79 93
0.30069 0.147202 0.087379 36 80 122
0.30069 0.147202 0.092379 43 84 119
0.29569 0.147202 0.097379 46 70 100
0.30069 0.142202 0.097379 106 78 86
0.30069 0.142202 0.102379 107 74 72
0.30069 0.147202 0.097379 53 70 100
0.30069 0.147202 0.102379 78 79 92
0.30569 0.132202 0.087379 149 88 44
0.30569 0.132202 0.092379 160 76 16
0.30569 0.132202 0.097379 146 74 23
0.30569 0.132202 0.102379 139 91 54
0.30069 0.137202 0.107379 70 75 97
0.29569 0.132202 0.122379 90 48 28
0.30069 0.142202 0.107379 110 77 71
0.30069 0.142202 0.112379 104 71 59
0.30069 0.147202 0.107379 80 78 84
0.30069 0.147202 0.112379 91 77 77
0.30569 0.132202 0.107379 134 98 74
0.30569 0.132202 0.112379 130 95 73
0.30569 0.137202 0.107379 82 98 118
0.30569 0.137202 0.112379 77 81 95
0.30569 0.132202 0.117379 129 103 87
0.30569 0.137202 0.117379 82 72 92
0.31069 0.132202 0.117379 135 96 69
0.31069 0.132202 0.122379 132 96 66
0.31069 0.137202 0.117379 91 93 107
0.31069 0.137202 0.122379 98 79 97
0.30569 0.142202 0.107379 115 77 78
0.30569 0.142202 0.112379 116 82 69
0.30569 0.147202 0.112379 92 75 72
0.30569 0.142202 0.117379 121 88 75
0.30569 0.142202 0.122379 118 89 71
0.30569 0.147202 0.117379 107 83 77
0.30569 0.147202 0.122379 121 90 77
0.31069 0.142202 0.117379 119 73 69
0.31069 0.142202 0.122379 126 82 76
0.31069 0.147202 0.122379 123 89 75
0.27569 0.112202 0.127379 124 56 6
0.27569 0.112202 0.132379 125 56 3
0.27569 0.117202 0.127379 111 67 43
0.27569 0.117202 0.132379 112 63 33
0.28069 0.112202 0.127379 106 86 70
0.28069 0.117202 0.127379 100 80 64
0.27569 0.112202 0.137379 127 59 4
0.27569 0.112202 0.142379 128 60 5
0.27569 0.117202 0.137379 123 58 22
0.27569 0.117202 0.142379 131 61 18
0.28069 0.112202 0.142379 137 67 7
0.28069 0.117202 0.142379 140 67 15
0.27569 0.122202 0.127379 110 57 45
0.27569 0.122202 0.132379 104 66 58
0.27569 0.127202 0.127379 118 35 18
0.27569 0.127202 0.132379 100 32 25
0.28069 0.122202 0.127379 100 85 76
0.28069 0.127202 0.127379 94 75 64
0.28069 0.127202 0.132379 90 66 50
0.27569 0.122202 0.137379 95 76 73
0.27569 0.122202 0.142379 102 92 91
0.27569 0.127202 0.137379 70 35 42
0.27569 0.127202 0.142379 87 37 56
0.28069 0.122202 0.142379 108 92 88
0.28069 0.127202 0.142379 91 37 56
0.28569 0.112202 0.127379 109 89 72
