ply
format ascii 1.0
element vertex 1246
property double x
property double y
property double z
property uchar red
property uchar green
property uchar blue
end_header
0.093782 0.66055 0.233435 101 106 116
0.093782 0.658512 0.238532 106 110 120
0.093782 0.659531 0.236493 107 111 121
0.093782 0.66055 0.238532 105 110 121
0.093782 0.654434 0.240571 102 105 114
0.093782 0.66157 0.232416 99 104 113
0.099898 0.710499 0.186544 69 75 83
0.100917 0.710499 0.187564 70 76 84
0.100917 0.710499 0.189602 72 77 85
0.100917 0.710499 0.196738 79 86 96
0.102956 0.710499 0.187564 61 66 74
0.101937 0.711519 0.191641 70 77 87
0.102956 0.712538 0.191641 70 76 86
0.103976 0.714577 0.196738 67 72 79
0.108053 0.711519 0.191641 64 68 74
0.102956 0.72579 0.198777 88 92 101
0.108053 0.721713 0.194699 84 89 98
0.107034 0.722732 0.194699 77 82 92
0.108053 0.724771 0.19368 65 71 80
0.104995 0.728848 0.194699 84 91 102
0.102956 0.729867 0.197757 91 97 107
0.103976 0.726809 0.196738 85 89 98
0.103976 0.731906 0.196738 93 98 107
0.103976 0.732926 0.197757 93 97 107
0.108053 0.729867 0.194699 53 57 63
0.109072 0.730887 0.194699 42 46 51
0.106014 0.730887 0.195719 95 102 113
0.107034 0.737003 0.198777 74 80 89
0.108053 0.734964 0.197757 57 61 68
0.111111 0.712538 0.191641 56 60 65
0.111111 0.717635 0.192661 64 68 74
0.116208 0.710499 0.19368 76 80 88
0.114169 0.717635 0.19368 71 76 84
0.110092 0.718654 0.192661 65 71 78
0.111111 0.723751 0.19368 69 73 79
0.110092 0.724771 0.19368 63 67 73
0.110092 0.72579 0.194699 61 64 70
0.111111 0.72579 0.19368 64 67 73
0.11213 0.724771 0.194699 75 79 87
0.116208 0.718654 0.195719 94 100 111
0.122324 0.712538 0.197757 110 116 127
0.123344 0.712538 0.198777 129 135 147
0.125382 0.710499 0.198777 112 119 132
0.111111 0.726809 0.194699 69 73 80
0.11315 0.726809 0.195719 85 92 102
0.11213 0.728848 0.195719 80 86 95
0.111111 0.730887 0.196738 78 83 92
0.111111 0.733945 0.197757 84 89 98
0.11213 0.731906 0.196738 96 101 110
0.117227 0.727829 0.198777 104 110 121
0.116208 0.730887 0.198777 101 108 119
0.11213 0.737003 0.197757 98 103 113
0.100917 0.710499 0.202854 97 103 113
0.100917 0.710499 0.204893 123 129 141
0.100917 0.711519 0.205912 111 117 128
0.09684 0.711519 0.215087 118 128 143
0.095821 0.713558 0.215087 111 120 134
0.09684 0.714577 0.215087 120 125 138
0.09684 0.715596 0.214067 128 131 145
0.09684 0.717635 0.212029 122 125 139
0.099898 0.717635 0.211009 133 139 153
0.100917 0.721713 0.20897 103 108 118
0.097859 0.718654 0.212029 124 127 141
0.099898 0.723751 0.20999 123 131 144
0.103976 0.713558 0.199796 78 83 91
0.101937 0.712538 0.203874 79 84 93
0.102956 0.712538 0.204893 79 85 95
0.101937 0.712538 0.205912 96 102 113
0.104995 0.715596 0.200815 80 85 93
0.102956 0.714577 0.206932 99 105 115
0.104995 0.714577 0.203874 75 80 88
0.104995 0.715596 0.204893 83 88 97
0.104995 0.716616 0.203874 88 93 102
0.107034 0.717635 0.200815 92 98 107
0.102956 0.715596 0.207951 112 116 126
0.102956 0.716616 0.20897 98 105 116
0.103976 0.717635 0.207951 95 101 111
0.104995 0.720693 0.202854 99 108 121
0.102956 0.723751 0.204893 94 96 106
0.101937 0.723751 0.205912 107 116 129
0.101937 0.724771 0.206932 126 135 149
0.094801 0.713558 0.216106 116 127 143
0.095821 0.711519 0.216106 121 131 146
0.099898 0.728848 0.203874 87 91 100
0.093782 0.730887 0.213048 150 158 173
0.093782 0.740061 0.204893 115 122 135
0.098879 0.737003 0.205912 139 151 169
0.102956 0.731906 0.199796 132 140 154
0.101937 0.732926 0.201835 120 123 134
0.125382 0.713558 0.199796 117 124 136
0.123344 0.715596 0.199796 108 114 125
0.124363 0.714577 0.199796 113 120 131
0.125382 0.715596 0.199796 114 120 132
0.120285 0.724771 0.199796 136 144 158
0.122324 0.72579 0.200815 125 134 149
0.124363 0.72579 0.200815 138 146 161
0.117227 0.730887 0.199796 106 112 123
0.116208 0.733945 0.199796 106 112 124
0.116208 0.735984 0.199796 107 113 123
0.119266 0.726809 0.199796 127 132 144
0.118247 0.730887 0.200815 113 119 131
0.123344 0.726809 0.200815 134 142 157
0.123344 0.733945 0.200815 118 122 132
0.125382 0.731906 0.200815 145 148 159
0.125382 0.733945 0.200815 108 113 124
0.119266 0.734964 0.201835 119 125 137
0.119266 0.741081 0.201835 115 121 133
0.123344 0.737003 0.200815 118 122 131
0.124363 0.740061 0.200815 120 128 142
0.100917 0.750255 0.198777 107 113 125
0.100917 0.756371 0.198777 109 113 124
0.103976 0.743119 0.198777 111 114 127
0.104995 0.748216 0.197757 111 117 130
0.106014 0.743119 0.197757 98 102 114
0.108053 0.745158 0.197757 81 87 97
0.106014 0.747197 0.197757 103 109 120
0.106014 0.749235 0.197757 112 119 131
0.101937 0.754332 0.197757 121 129 142
0.104995 0.75841 0.198777 113 119 130
0.108053 0.754332 0.198777 79 85 95
0.095821 0.743119 0.203874 127 131 141
0.098879 0.749235 0.199796 112 117 128
0.100917 0.749235 0.199796 108 113 123
0.097859 0.753313 0.199796 123 129 142
0.094801 0.766565 0.199796 120 125 137
0.093782 0.769623 0.200815 119 124 134
0.093782 0.7737 0.200815 137 143 157
0.095821 0.7737 0.200815 139 146 161
0.100917 0.771662 0.199796 123 127 138
0.107034 0.761468 0.199796 79 85 95
0.101937 0.768603 0.200815 121 127 139
0.104995 0.768603 0.199796 126 132 145
0.109072 0.768603 0.200815 66 72 80
0.108053 0.77472 0.199796 74 79 87
0.115189 0.744139 0.201835 113 120 131
0.114169 0.745158 0.201835 116 124 137
0.116208 0.743119 0.201835 117 122 134
0.116208 0.745158 0.201835 123 129 141
0.11315 0.755352 0.201835 109 116 127
0.114169 0.753313 0.201835 111 116 128
0.117227 0.75739 0.202854 124 131 144
0.119266 0.746177 0.201835 118 123 136
0.125382 0.747197 0.199796 126 133 147
0.120285 0.754332 0.201835 135 142 155
0.123344 0.751274 0.199796 102 106 116
0.111111 0.761468 0.201835 109 114 124
0.11315 0.762487 0.203874 120 126 139
0.117227 0.759429 0.203874 120 125 137
0.110092 0.770642 0.201835 78 83 91
0.11213 0.768603 0.203874 115 122 133
0.11315 0.769623 0.203874 120 127 140
0.114169 0.768603 0.203874 133 140 153
0.123344 0.759429 0.199796 115 122 136
0.118247 0.772681 0.202854 109 114 124
0.118247 0.77472 0.202854 109 113 123
0.12946 0.710499 0.198777 116 123 135
0.12946 0.716616 0.198777 125 133 147
0.130479 0.715596 0.198777 120 126 137
0.131498 0.716616 0.198777 127 132 144
0.131498 0.718654 0.197757 127 132 142
0.131498 0.720693 0.197757 111 113 122
0.130479 0.724771 0.197757 104 108 118
0.136595 0.712538 0.195719 129 134 146
0.136595 0.714577 0.195719 112 120 132
0.139653 0.711519 0.19368 109 113 122
0.139653 0.713558 0.19368 103 109 120
0.141692 0.712538 0.192661 104 109 120
0.139653 0.715596 0.19368 105 110 121
0.137615 0.720693 0.194699 108 113 123
0.141692 0.718654 0.192661 129 137 151
0.141692 0.720693 0.192661 137 147 164
0.130479 0.727829 0.198777 107 111 120
0.133537 0.733945 0.195719 113 116 125
0.136595 0.732926 0.194699 120 125 136
0.138634 0.726809 0.19368 113 118 129
0.138634 0.732926 0.194699 128 134 147
0.135576 0.735984 0.195719 112 117 129
0.140673 0.7421 0.195719 120 126 138
0.149847 0.710499 0.190622 137 142 154
0.142712 0.713558 0.192661 111 115 125
0.14475 0.712538 0.191641 110 115 126
0.143731 0.714577 0.192661 111 116 126
0.14577 0.717635 0.191641 118 123 133
0.149847 0.711519 0.191641 120 126 138
0.148828 0.717635 0.192661 126 133 146
0.149847 0.716616 0.192661 131 138 152
0.143731 0.720693 0.192661 141 150 165
0.14475 0.718654 0.191641 117 122 136
0.14475 0.721713 0.192661 141 150 166
0.146789 0.718654 0.191641 117 122 134
0.153925 0.711519 0.191641 107 113 125
0.152905 0.715596 0.192661 120 127 140
0.158002 0.711519 0.19368 109 116 128
0.156983 0.713558 0.194699 132 139 152
0.152905 0.718654 0.19368 104 110 122
0.153925 0.718654 0.194699 104 111 122
0.151886 0.724771 0.194699 107 113 124
0.156983 0.723751 0.196738 114 122 135
0.158002 0.722732 0.196738 116 123 136
0.143731 0.727829 0.19368 115 120 131
0.142712 0.730887 0.19368 116 122 133
0.143731 0.730887 0.194699 115 121 133
0.142712 0.737003 0.194699 115 121 134
0.146789 0.735984 0.196738 104 111 123
0.152905 0.726809 0.195719 106 113 124
0.155963 0.730887 0.198777 107 114 126
0.156983 0.733945 0.198777 109 115 126
0.127421 0.711519 0.199796 120 127 140
0.12844 0.712538 0.199796 137 143 155
0.127421 0.717635 0.199796 124 132 146
0.12844 0.716616 0.199796 121 129 144
0.12844 0.720693 0.199796 128 132 143
0.126402 0.724771 0.199796 118 123 134
0.126402 0.728848 0.199796 114 119 130
0.126402 0.730887 0.199796 130 133 143
0.153925 0.738022 0.199796 108 115 127
0.12946 0.745158 0.197757 105 112 122
0.126402 0.748216 0.198777 107 112 124
0.131498 0.746177 0.196738 109 114 124
0.131498 0.748216 0.196738 113 119 130
0.133537 0.750255 0.196738 135 140 151
0.130479 0.754332 0.197757 113 119 130
0.137615 0.746177 0.195719 146 153 167
0.140673 0.749235 0.197757 121 128 141
0.134557 0.751274 0.196738 124 129 140
0.135576 0.75841 0.198777 115 121 133
0.127421 0.762487 0.198777 140 149 163
0.12844 0.762487 0.197757 145 151 163
0.12844 0.764526 0.197757 133 141 155
0.130479 0.760449 0.197757 120 123 133
0.131498 0.762487 0.198777 123 127 138
0.126402 0.769623 0.198777 120 125 136
0.12844 0.767584 0.198777 117 124 137
0.12844 0.769623 0.198777 138 143 155
0.127421 0.772681 0.198777 118 123 134
0.130479 0.769623 0.198777 129 135 147
0.138634 0.75841 0.199796 111 116 128
0.140673 0.756371 0.199796 126 133 146
0.133537 0.765545 0.199796 121 127 138
0.130479 0.772681 0.199796 118 123 135
0.135576 0.767584 0.199796 121 126 136
0.137615 0.768603 0.200815 117 122 133
0.141692 0.770642 0.202854 132 137 148
0.139653 0.7737 0.201835 124 130 142
0.14475 0.754332 0.200815 110 116 127
0.149847 0.752294 0.200815 115 120 132
0.148828 0.753313 0.200815 116 121 132
0.149847 0.753313 0.201835 116 122 133
0.149847 0.75739 0.202854 130 136 148
0.152905 0.744139 0.199796 110 116 128
0.150866 0.750255 0.201835 111 117 129
0.155963 0.751274 0.202854 132 138 150
0.156983 0.752294 0.202854 133 138 149
0.14577 0.761468 0.201835 129 138 152
0.143731 0.763507 0.201835 115 121 133
0.14577 0.764526 0.202854 122 127 139
0.147808 0.759429 0.201835 141 150 164
0.147808 0.760449 0.202854 134 142 157
0.149847 0.764526 0.202854 125 130 141
0.148828 0.765545 0.202854 130 137 150
0.143731 0.768603 0.202854 137 142 154
0.152905 0.765545 0.202854 122 126 137
0.154944 0.762487 0.202854 121 126 137
0.155963 0.770642 0.202854 119 128 142
0.173293 0.652395 0.182467 111 118 129
0.174312 0.651376 0.182467 121 126 138
0.168196 0.655454 0.182467 146 152 165
0.170234 0.655454 0.182467 126 131 143
0.174312 0.655454 0.182467 130 136 149
0.159021 0.647299 0.189602 106 112 122
0.159021 0.650357 0.188583 108 113 123
0.159021 0.652395 0.188583 109 113 122
0.163099 0.646279 0.186544 104 109 119
0.159021 0.654434 0.188583 106 109 118
0.16106 0.658512 0.186544 121 129 143
0.163099 0.654434 0.185525 105 109 120
0.164118 0.656473 0.184506 107 114 127
0.166157 0.655454 0.183486 125 132 145
0.166157 0.659531 0.183486 112 118 132
0.170234 0.656473 0.183486 116 123 135
0.160041 0.66157 0.186544 127 138 154
0.160041 0.662589 0.185525 121 129 147
0.160041 0.666667 0.185525 114 118 129
0.159021 0.667686 0.186544 113 117 126
0.160041 0.668705 0.185525 114 120 132
0.166157 0.666667 0.184506 111 116 127
0.166157 0.668705 0.184506 113 119 130
0.160041 0.670744 0.185525 117 121 132
0.16106 0.671763 0.185525 116 122 133
0.16106 0.675841 0.185525 119 124 135
0.166157 0.670744 0.184506 110 115 126
0.167176 0.663609 0.184506 112 117 127
0.168196 0.663609 0.183486 110 116 128
0.170234 0.66157 0.183486 119 126 138
0.167176 0.667686 0.184506 113 119 130
0.169215 0.665647 0.184506 112 118 130
0.168196 0.671763 0.185525 103 109 120
0.170234 0.672783 0.186544 112 118 130
0.173293 0.669725 0.186544 98 103 114
0.174312 0.672783 0.188583 118 124 134
0.171254 0.674822 0.187564 116 121 133
0.172273 0.67686 0.188583 96 102 112
0.175331 0.651376 0.181448 127 133 145
0.180428 0.646279 0.182467 97 103 113
0.179409 0.649337 0.183486 100 105 114
0.176351 0.657492 0.184506 103 109 119
0.176351 0.659531 0.184506 100 106 117
0.179409 0.658512 0.186544 119 126 138
0.183486 0.649337 0.184506 103 108 118
0.188583 0.646279 0.184506 107 113 124
0.190622 0.64526 0.185525 96 102 112
0.175331 0.669725 0.188583 108 115 127
0.175331 0.671763 0.188583 110 116 128
0.175331 0.675841 0.190622 102 108 119
0.182467 0.675841 0.191641 137 145 159
0.183486 0.665647 0.189602 128 133 145
0.188583 0.662589 0.189602 112 117 127
0.187564 0.663609 0.189602 113 118 128
0.190622 0.667686 0.190622 118 123 134
0.160041 0.682977 0.186544 131 138 152
0.16106 0.685015 0.187564 109 115 127
0.165138 0.678899 0.186544 109 117 130
0.165138 0.679918 0.187564 121 128 141
0.163099 0.681957 0.186544 130 139 154
0.163099 0.682977 0.187564 132 140 153
0.163099 0.685015 0.187564 117 123 135
0.165138 0.681957 0.187564 110 117 129
0.160041 0.686035 0.187564 112 118 129
0.160041 0.689093 0.188583 109 115 126
0.165138 0.686035 0.188583 104 109 119
0.166157 0.689093 0.190622 99 105 116
0.165138 0.69317 0.191641 94 100 111
0.167176 0.682977 0.188583 100 105 114
0.171254 0.683996 0.191641 108 114 124
0.169215 0.69317 0.19368 122 129 142
0.171254 0.689093 0.192661 100 107 118
0.160041 0.697248 0.190622 111 118 131
0.16106 0.695209 0.189602 100 106 117
0.159021 0.700306 0.190622 105 112 124
0.163099 0.695209 0.191641 98 105 116
0.163099 0.700306 0.192661 117 126 139
0.166157 0.704383 0.195719 112 118 130
0.169215 0.695209 0.19368 116 123 135
0.172273 0.698267 0.195719 119 126 138
0.168196 0.707441 0.196738 112 118 129
0.17737 0.683996 0.192661 110 116 128
0.178389 0.683996 0.19368 119 126 138
0.179409 0.67788 0.192661 134 140 152
0.179409 0.685015 0.19368 131 137 148
0.181448 0.683996 0.192661 113 118 127
0.176351 0.690112 0.194699 127 135 149
0.179409 0.687054 0.19368 138 143 155
0.184506 0.679918 0.191641 142 149 164
0.183486 0.681957 0.192661 120 124 135
0.184506 0.685015 0.192661 129 133 144
0.189602 0.678899 0.191641 109 113 123
0.190622 0.680938 0.192661 108 113 123
0.187564 0.682977 0.191641 110 115 126
0.188583 0.683996 0.191641 107 113 123
0.185525 0.69317 0.19368 116 122 135
0.189602 0.690112 0.192661 114 121 134
0.190622 0.690112 0.19368 126 134 148
0.176351 0.700306 0.195719 154 161 174
0.17737 0.70948 0.197757 118 125 138
0.186544 0.69419 0.19368 120 128 142
0.185525 0.702345 0.195719 112 117 127
0.183486 0.708461 0.196738 114 118 128
0.186544 0.706422 0.196738 116 120 130
0.185525 0.70948 0.197757 115 118 127
0.187564 0.704383 0.195719 136 140 151
0.19368 0.648318 0.187564 118 123 133
0.194699 0.649337 0.187564 119 124 135
0.195719 0.648318 0.187564 121 125 135
0.19368 0.655454 0.188583 124 131 144
0.195719 0.66055 0.189602 119 123 133
0.196738 0.659531 0.189602 115 119 131
0.197757 0.659531 0.188583 116 123 137
0.200815 0.64526 0.186544 87 90 97
0.203874 0.650357 0.186544 124 130 143
0.201835 0.657492 0.188583 118 122 132
0.204893 0.657492 0.187564 118 122 132
0.203874 0.659531 0.188583 116 119 128
0.192661 0.664628 0.189602 130 134 146
0.194699 0.66157 0.189602 121 125 134
0.192661 0.674822 0.191641 110 116 129
0.19368 0.673802 0.191641 117 122 132
0.195719 0.669725 0.191641 116 120 131
0.197757 0.67686 0.192661 118 124 136
0.203874 0.664628 0.189602 107 112 123
0.203874 0.666667 0.189602 111 116 127
0.204893 0.667686 0.189602 119 124 134
0.205912 0.665647 0.188583 116 121 132
0.206932 0.670744 0.190622 127 133 144
0.205912 0.673802 0.191641 112 116 126
0.215087 0.650357 0.182467 105 111 121
0.217125 0.646279 0.180428 105 111 122
0.218145 0.648318 0.181448 115 121 132
0.220183 0.649337 0.182467 91 96 105
0.222222 0.649337 0.182467 87 91 99
0.20999 0.652395 0.184506 122 129 143
0.211009 0.651376 0.183486 137 143 155
0.207951 0.655454 0.185525 103 107 117
0.211009 0.655454 0.184506 93 99 110
0.20897 0.657492 0.186544 95 99 108
0.212029 0.653415 0.184506 106 112 123
0.213048 0.654434 0.184506 96 102 113
0.214067 0.655454 0.184506 97 103 114
0.218145 0.652395 0.183486 95 101 110
0.219164 0.651376 0.183486 89 94 103
0.221203 0.651376 0.183486 85 90 99
0.216106 0.653415 0.184506 94 99 109
0.221203 0.657492 0.187564 105 112 122
0.220183 0.66055 0.189602 113 120 132
0.211009 0.66157 0.186544 98 104 114
0.211009 0.663609 0.186544 105 111 122
0.20897 0.663609 0.187564 85 89 98
0.20999 0.664628 0.187564 91 97 107
0.221203 0.663609 0.191641 99 104 114
0.218145 0.669725 0.192661 104 109 118
0.192661 0.67788 0.191641 109 114 124
0.191641 0.681957 0.192661 110 115 126
0.197757 0.681957 0.194699 120 123 133
0.198777 0.682977 0.194699 121 125 135
0.192661 0.688073 0.19368 108 115 126
0.191641 0.69317 0.19368 125 132 145
0.196738 0.69317 0.196738 116 122 133
0.200815 0.678899 0.19368 127 132 144
0.201835 0.685015 0.195719 123 127 137
0.205912 0.679918 0.19368 114 119 129
0.200815 0.689093 0.196738 90 90 96
0.201835 0.687054 0.195719 117 120 129
0.204893 0.690112 0.197757 111 107 109
0.194699 0.701325 0.196738 100 107 119
0.194699 0.70948 0.197757 140 147 161
0.198777 0.702345 0.197757 124 128 140
0.198777 0.707441 0.198777 122 128 141
0.206932 0.699286 0.198777 122 125 135
0.201835 0.704383 0.198777 125 129 139
0.212029 0.67788 0.19368 98 104 114
0.213048 0.679918 0.194699 105 111 122
0.207951 0.69317 0.197757 118 120 129
0.214067 0.686035 0.197757 131 137 148
0.216106 0.680938 0.196738 110 115 126
0.217125 0.679918 0.196738 109 114 125
0.218145 0.678899 0.196738 112 117 128
0.216106 0.682977 0.196738 116 122 132
0.220183 0.681957 0.197757 124 132 145
0.218145 0.688073 0.197757 116 121 133
0.217125 0.692151 0.198777 121 127 139
0.219164 0.690112 0.198777 116 122 134
0.222222 0.688073 0.197757 117 122 133
0.207951 0.69419 0.198777 123 126 136
0.207951 0.698267 0.198777 123 127 136
0.213048 0.697248 0.198777 112 116 126
0.206932 0.700306 0.199796 120 125 136
0.199796 0.70948 0.199796 126 133 146
0.207951 0.699286 0.199796 124 127 137
0.207951 0.705403 0.199796 130 133 143
0.20897 0.708461 0.199796 129 135 147
0.160041 0.715596 0.195719 101 108 119
0.16208 0.717635 0.197757 128 137 151
0.165138 0.713558 0.197757 106 112 123
0.16106 0.720693 0.197757 123 130 142
0.163099 0.720693 0.197757 118 125 137
0.163099 0.723751 0.198777 111 117 129
0.166157 0.722732 0.198777 118 122 133
0.167176 0.716616 0.198777 136 141 153
0.173293 0.711519 0.197757 145 150 163
0.174312 0.717635 0.198777 122 130 142
0.170234 0.719674 0.198777 120 123 134
0.173293 0.718654 0.198777 114 119 131
0.176351 0.710499 0.197757 118 123 134
0.176351 0.712538 0.197757 114 119 129
0.17737 0.713558 0.197757 113 117 127
0.183486 0.713558 0.197757 120 127 141
0.186544 0.710499 0.197757 118 122 132
0.183486 0.714577 0.198777 123 130 143
0.184506 0.717635 0.198777 133 138 150
0.188583 0.714577 0.197757 136 144 160
0.188583 0.717635 0.198777 137 143 156
0.183486 0.718654 0.198777 126 129 138
0.185525 0.729867 0.198777 111 117 129
0.188583 0.7421 0.197757 112 117 128
0.165138 0.728848 0.199796 112 116 127
0.16106 0.735984 0.200815 114 121 134
0.160041 0.739042 0.200815 121 128 141
0.16208 0.740061 0.201835 118 123 135
0.16208 0.7421 0.201835 117 122 134
0.166157 0.738022 0.201835 131 140 156
0.167176 0.727829 0.200815 118 122 132
0.171254 0.727829 0.200815 119 123 132
0.168196 0.734964 0.200815 132 142 158
0.170234 0.7421 0.201835 119 126 138
0.174312 0.737003 0.200815 122 126 137
0.181448 0.721713 0.199796 115 121 132
0.183486 0.723751 0.199796 132 138 151
0.179409 0.728848 0.200815 124 129 140
0.182467 0.732926 0.199796 115 122 134
0.178389 0.734964 0.200815 122 127 138
0.176351 0.739042 0.200815 115 122 134
0.17737 0.740061 0.200815 136 142 156
0.179409 0.735984 0.200815 136 142 155
0.182467 0.7421 0.199796 115 119 132
0.184506 0.728848 0.199796 117 120 130
0.174312 0.764526 0.197757 122 126 137
0.173293 0.77472 0.196738 151 156 168
0.182467 0.755352 0.197757 128 135 148
0.185525 0.747197 0.197757 126 131 143
0.189602 0.743119 0.197757 117 122 132
0.185525 0.752294 0.197757 118 124 137
0.183486 0.75841 0.197757 148 155 169
0.190622 0.75739 0.196738 120 126 138
0.182467 0.759429 0.197757 154 161 177
0.176351 0.768603 0.196738 125 130 143
0.181448 0.769623 0.196738 136 141 154
0.179409 0.77472 0.195719 119 124 136
0.180428 0.7737 0.195719 119 126 139
0.182467 0.7737 0.195719 126 133 146
0.186544 0.762487 0.196738 129 137 150
0.188583 0.762487 0.196738 132 139 152
0.190622 0.764526 0.198777 100 107 118
0.183486 0.767584 0.196738 118 124 139
0.184506 0.770642 0.196738 125 133 146
0.186544 0.767584 0.197757 121 128 141
0.186544 0.769623 0.197757 129 135 147
0.186544 0.7737 0.197757 97 103 114
0.189602 0.769623 0.198777 100 106 117
0.188583 0.772681 0.198777 102 109 121
0.188583 0.77472 0.198777 112 118 130
0.160041 0.75739 0.202854 124 133 148
0.165138 0.753313 0.201835 121 126 137
0.163099 0.756371 0.201835 118 122 132
0.165138 0.75739 0.200815 124 128 140
0.168196 0.744139 0.201835 128 133 143
0.168196 0.745158 0.200815 125 129 139
0.172273 0.746177 0.200815 122 126 137
0.173293 0.744139 0.200815 118 123 134
0.173293 0.748216 0.199796 118 125 137
0.167176 0.752294 0.200815 127 135 149
0.169215 0.752294 0.200815 128 134 146
0.174312 0.752294 0.199796 132 137 149
0.173293 0.753313 0.199796 120 128 142
0.159021 0.759429 0.202854 148 157 173
0.159021 0.763507 0.202854 125 131 144
0.165138 0.761468 0.200815 113 118 130
0.164118 0.766565 0.200815 130 137 151
0.160041 0.768603 0.201835 116 122 133
0.165138 0.770642 0.200815 139 145 158
0.168196 0.764526 0.199796 124 128 139
0.167176 0.769623 0.199796 117 121 131
0.175331 0.744139 0.200815 135 141 154
0.180428 0.746177 0.199796 121 126 137
0.194699 0.711519 0.197757 123 130 143
0.195719 0.715596 0.198777 110 115 126
0.192661 0.719674 0.197757 112 117 128
0.192661 0.721713 0.197757 114 119 131
0.194699 0.728848 0.197757 126 131 142
0.195719 0.731906 0.197757 117 122 133
0.198777 0.733945 0.198777 97 103 113
0.194699 0.735984 0.197757 111 119 132
0.19368 0.737003 0.197757 116 122 134
0.191641 0.741081 0.197757 124 130 142
0.215087 0.739042 0.198777 145 152 167
0.221203 0.732926 0.197757 119 122 132
0.200815 0.721713 0.199796 134 140 152
0.199796 0.724771 0.199796 116 120 130
0.201835 0.723751 0.200815 122 126 137
0.201835 0.72579 0.200815 121 125 135
0.204893 0.722732 0.200815 119 123 133
0.204893 0.724771 0.200815 127 130 140
0.206932 0.724771 0.200815 120 124 135
0.203874 0.729867 0.200815 149 155 169
0.201835 0.735984 0.200815 111 117 129
0.204893 0.739042 0.200815 114 116 123
0.206932 0.739042 0.200815 85 83 85
0.213048 0.714577 0.199796 106 109 119
0.213048 0.718654 0.199796 126 131 141
0.215087 0.722732 0.199796 86 92 102
0.217125 0.724771 0.199796 118 125 139
0.20999 0.730887 0.199796 141 147 160
0.207951 0.738022 0.200815 96 94 97
0.207951 0.7421 0.200815 81 77 78
0.20897 0.741081 0.200815 83 79 81
0.20999 0.740061 0.200815 86 80 80
0.192661 0.746177 0.197757 117 122 133
0.19368 0.745158 0.197757 116 121 133
0.197757 0.746177 0.198777 95 102 113
0.196738 0.748216 0.197757 111 119 131
0.195719 0.749235 0.197757 110 118 130
0.191641 0.753313 0.196738 142 151 167
0.192661 0.75841 0.197757 113 120 132
0.192661 0.761468 0.198777 110 117 128
0.198777 0.770642 0.198777 96 98 110
0.199796 0.767584 0.198777 123 128 140
0.201835 0.7737 0.197757 108 113 124
0.204893 0.770642 0.198777 95 101 112
0.204893 0.77472 0.198777 96 103 113
0.219164 0.743119 0.198777 98 105 116
0.223242 0.7737 0.197757 97 103 113
0.204893 0.747197 0.201835 112 117 127
0.202854 0.751274 0.201835 91 96 106
0.205912 0.753313 0.202854 112 118 130
0.194699 0.759429 0.199796 96 103 115
0.197757 0.759429 0.200815 120 126 139
0.192661 0.770642 0.200815 122 128 141
0.19368 0.769623 0.200815 115 121 132
0.19368 0.77472 0.199796 106 112 124
0.195719 0.77472 0.199796 95 98 107
0.200815 0.764526 0.200815 104 108 122
0.200815 0.766565 0.199796 130 134 146
0.201835 0.764526 0.199796 108 114 126
0.203874 0.761468 0.200815 100 105 116
0.203874 0.766565 0.199796 101 107 117
0.203874 0.768603 0.199796 98 105 116
0.205912 0.767584 0.200815 89 94 104
0.205912 0.768603 0.199796 93 99 109
0.207951 0.746177 0.201835 116 123 134
0.20999 0.746177 0.200815 103 109 120
0.213048 0.747197 0.200815 105 110 120
0.212029 0.750255 0.201835 138 145 158
0.20999 0.752294 0.201835 114 122 136
0.211009 0.754332 0.202854 113 119 131
0.207951 0.75739 0.202854 110 116 128
0.211009 0.756371 0.202854 112 117 127
0.212029 0.755352 0.202854 114 119 129
0.217125 0.75739 0.200815 110 115 127
0.218145 0.756371 0.200815 122 129 141
0.220183 0.754332 0.199796 105 110 119
0.207951 0.767584 0.202854 101 106 116
0.207951 0.7737 0.200815 93 100 112
0.207951 0.77472 0.199796 92 98 108
0.211009 0.77472 0.202854 102 102 109
0.217125 0.769623 0.200815 114 123 137
0.216106 0.77472 0.201835 106 115 127
0.220183 0.768603 0.199796 117 122 133
0.060143 0.779817 0.148828 111 119 132
0.060143 0.782875 0.153925 119 127 140
0.059123 0.780836 0.154944 101 108 119
0.059123 0.782875 0.154944 110 116 128
0.057085 0.776758 0.16208 106 112 123
0.058104 0.780836 0.160041 106 113 126
0.058104 0.779817 0.16208 95 101 111
0.059123 0.782875 0.163099 99 106 118
0.059123 0.781855 0.165138 110 118 131
0.059123 0.782875 0.166157 126 134 148
0.060143 0.783894 0.152905 127 135 150
0.060143 0.786952 0.153925 108 115 127
0.059123 0.785933 0.160041 101 108 119
0.076453 0.775739 0.124363 100 106 116
0.072375 0.781855 0.132518 104 110 121
0.073394 0.777778 0.130479 87 93 103
0.075433 0.779817 0.12844 89 95 104
0.075433 0.781855 0.12844 88 94 104
0.073394 0.782875 0.131498 92 99 110
0.072375 0.784913 0.133537 96 102 112
0.076453 0.783894 0.126402 90 96 106
0.073394 0.787971 0.132518 93 99 109
0.075433 0.796126 0.130479 99 107 118
0.075433 0.798165 0.132518 102 109 120
0.075433 0.800204 0.132518 104 110 122
0.076453 0.805301 0.131498 111 118 130
0.076453 0.80632 0.132518 108 115 127
0.082569 0.775739 0.116208 79 86 95
0.082569 0.779817 0.116208 92 100 111
0.083588 0.780836 0.114169 81 88 99
0.082569 0.783894 0.115189 107 115 127
0.082569 0.785933 0.115189 113 120 132
0.085627 0.781855 0.11315 81 87 96
0.088685 0.779817 0.11315 56 61 69
0.089704 0.776758 0.11213 55 61 68
0.090724 0.775739 0.11213 62 67 74
0.091743 0.778797 0.111111 64 69 76
0.090724 0.79103 0.108053 68 72 80
0.092762 0.79001 0.107034 67 73 81
0.085627 0.785933 0.11213 86 93 104
0.087666 0.787971 0.110092 65 72 81
0.079511 0.777778 0.120285 121 127 138
0.08053 0.779817 0.118247 118 125 137
0.079511 0.779817 0.120285 114 120 132
0.078491 0.787971 0.124363 91 97 107
0.079511 0.79103 0.123344 93 99 109
0.081549 0.79001 0.121305 107 112 123
0.077472 0.785933 0.126402 89 95 105
0.084608 0.792049 0.114169 124 130 142
0.083588 0.795107 0.116208 114 119 130
0.084608 0.796126 0.114169 128 134 147
0.088685 0.793068 0.109072 75 82 92
0.090724 0.792049 0.107034 66 72 79
0.089704 0.792049 0.108053 70 76 84
0.089704 0.794088 0.108053 75 81 90
0.087666 0.796126 0.110092 93 99 109
0.085627 0.798165 0.114169 123 129 141
0.092762 0.807339 0.108053 106 115 128
0.086646 0.801223 0.11315 132 140 153
0.088685 0.800204 0.110092 103 111 124
0.085627 0.805301 0.117227 116 121 132
0.090724 0.80632 0.111111 118 125 138
0.08053 0.799185 0.123344 97 103 113
0.081549 0.792049 0.119266 121 126 138
0.082569 0.794088 0.119266 105 110 121
0.081549 0.795107 0.120285 93 99 109
0.082569 0.798165 0.119266 103 109 120
0.083588 0.799185 0.118247 102 108 120
0.081549 0.800204 0.123344 99 106 116
0.082569 0.804281 0.121305 106 112 124
0.079511 0.805301 0.127421 99 105 116
0.068298 0.780836 0.136595 97 103 112
0.063201 0.777778 0.142712 85 91 101
0.061162 0.776758 0.146789 100 107 119
0.062181 0.781855 0.14475 89 96 106
0.061162 0.782875 0.146789 101 110 122
0.067278 0.785933 0.140673 98 104 115
0.06524 0.788991 0.143731 107 114 126
0.070336 0.784913 0.136595 100 107 118
0.069317 0.785933 0.136595 105 112 123
0.061162 0.785933 0.151886 116 126 141
0.061162 0.788991 0.152905 107 114 126
0.062181 0.79001 0.16106 150 162 180
0.067278 0.794088 0.140673 123 129 141
0.067278 0.795107 0.141692 118 125 137
0.068298 0.795107 0.140673 113 120 132
0.066259 0.795107 0.14475 96 102 113
0.067278 0.797146 0.143731 98 105 116
0.066259 0.802243 0.149847 124 133 147
0.070336 0.797146 0.138634 106 112 123
0.072375 0.800204 0.137615 123 131 145
0.072375 0.801223 0.136595 127 134 147
0.071356 0.802243 0.138634 119 126 138
0.074414 0.801223 0.134557 110 116 128
0.074414 0.802243 0.135576 109 116 127
0.073394 0.802243 0.136595 116 123 135
0.070336 0.805301 0.142712 103 110 121
0.063201 0.795107 0.150866 101 108 119
0.063201 0.794088 0.153925 122 129 142
0.06524 0.799185 0.156983 151 160 177
0.06422 0.795107 0.16208 125 132 146
0.066259 0.799185 0.16208 130 137 150
0.066259 0.798165 0.163099 119 126 139
0.066259 0.803262 0.152905 129 135 149
0.067278 0.80632 0.152905 125 132 146
0.068298 0.807339 0.154944 117 125 139
0.066259 0.801223 0.164118 111 118 130
0.089704 0.811417 0.117227 121 128 141
0.089704 0.813456 0.117227 116 124 136
0.081549 0.808359 0.127421 114 120 132
0.081549 0.816514 0.131498 126 132 145
0.086646 0.809378 0.119266 111 117 129
0.087666 0.809378 0.118247 120 126 138
0.087666 0.813456 0.120285 123 129 140
0.085627 0.812436 0.122324 110 118 130
0.089704 0.814475 0.118247 117 124 137
0.088685 0.816514 0.120285 127 133 146
0.088685 0.816514 0.122324 122 128 141
0.091743 0.816514 0.118247 128 136 149
0.085627 0.816514 0.126402 118 126 140
0.085627 0.827727 0.133537 107 114 126
0.090724 0.829766 0.127421 122 129 142
0.089704 0.831804 0.132518 111 119 132
0.089704 0.835882 0.132518 125 134 149
0.072375 0.809378 0.142712 108 115 127
0.070336 0.809378 0.148828 130 137 151
0.070336 0.810398 0.149847 128 135 148
0.070336 0.811417 0.148828 126 134 148
0.072375 0.813456 0.146789 124 132 145
0.072375 0.813456 0.148828 129 136 150
0.072375 0.815494 0.148828 120 128 141
0.074414 0.814475 0.143731 112 120 134
0.074414 0.815494 0.142712 113 122 136
0.076453 0.818552 0.141692 127 135 149
0.074414 0.818552 0.14577 135 145 161
0.075433 0.818552 0.14475 134 144 160
0.073394 0.816514 0.146789 126 133 147
0.073394 0.817533 0.147808 125 132 147
0.074414 0.819572 0.146789 131 139 154
0.076453 0.820591 0.14577 135 144 159
0.074414 0.820591 0.149847 113 120 135
0.076453 0.823649 0.146789 119 126 140
0.068298 0.808359 0.160041 128 137 152
0.069317 0.809378 0.158002 122 130 144
0.069317 0.811417 0.160041 118 125 139
0.072375 0.817533 0.156983 113 122 137
0.073394 0.820591 0.152905 112 120 134
0.075433 0.823649 0.151886 126 134 148
0.072375 0.817533 0.16106 129 138 153
0.074414 0.82263 0.166157 142 151 168
0.076453 0.825688 0.16106 132 139 154
0.076453 0.828746 0.160041 125 132 146
0.077472 0.815494 0.137615 109 115 126
0.078491 0.817533 0.136595 116 123 136
0.077472 0.818552 0.140673 118 126 140
0.078491 0.821611 0.142712 125 132 145
0.082569 0.824669 0.136595 105 113 125
0.08053 0.829766 0.14475 133 140 155
0.08053 0.830785 0.147808 133 141 156
0.083588 0.83792 0.146789 108 115 128
0.084608 0.839959 0.149847 129 140 157
0.086646 0.829766 0.134557 108 115 127
0.086646 0.834862 0.137615 137 147 163
0.087666 0.834862 0.135576 125 133 147
0.089704 0.83792 0.134557 127 135 149
0.085627 0.839959 0.14475 106 114 127
0.077472 0.829766 0.155963 130 138 152
0.078491 0.829766 0.165138 125 134 149
0.078491 0.831804 0.163099 115 123 137
0.079511 0.832824 0.156983 115 124 137
0.082569 0.83894 0.152905 125 134 149
0.079511 0.832824 0.159021 118 127 142
0.08053 0.834862 0.16208 137 146 161
0.085627 0.839959 0.158002 159 168 186
0.089704 0.840979 0.137615 131 139 153
0.091743 0.844037 0.138634 136 143 158
0.092762 0.846075 0.138634 129 136 151
0.088685 0.844037 0.14475 138 147 163
0.086646 0.841998 0.146789 133 142 158
0.086646 0.843017 0.147808 148 157 174
0.089704 0.844037 0.142712 135 143 158
0.089704 0.845056 0.14577 146 156 173
0.086646 0.841998 0.153925 141 151 170
0.086646 0.841998 0.158002 142 150 167
0.086646 0.843017 0.154944 139 147 163
0.087666 0.844037 0.154944 138 146 163
0.089704 0.847095 0.154944 148 157 175
0.088685 0.844037 0.160041 129 136 151
0.087666 0.840979 0.163099 151 161 178
0.088685 0.843017 0.164118 124 132 148
0.088685 0.846075 0.16208 127 135 150
0.090724 0.846075 0.163099 127 136 151
0.091743 0.849134 0.153925 160 169 186
0.090724 0.849134 0.154944 143 154 172
0.092762 0.850153 0.158002 141 148 164
0.100917 0.779817 0.09684 88 95 106
0.100917 0.786952 0.097859 83 88 97
0.100917 0.79001 0.098879 83 90 100
0.104995 0.775739 0.091743 92 98 108
0.108053 0.782875 0.089704 95 102 113
0.101937 0.782875 0.09684 102 109 120
0.109072 0.784913 0.088685 107 113 124
0.106014 0.787971 0.092762 90 96 107
0.101937 0.783894 0.095821 105 111 122
0.102956 0.785933 0.094801 97 103 114
0.108053 0.796126 0.092762 107 116 128
0.109072 0.796126 0.091743 100 109 122
0.101937 0.793068 0.098879 111 117 128
0.102956 0.799185 0.097859 80 87 96
0.107034 0.798165 0.093782 108 114 125
0.103976 0.802243 0.097859 97 104 115
0.104995 0.805301 0.097859 106 113 126
0.109072 0.803262 0.094801 91 98 109
0.107034 0.804281 0.095821 95 101 112
0.11213 0.778797 0.083588 92 98 109
0.114169 0.776758 0.081549 102 109 121
0.11213 0.785933 0.084608 115 121 133
0.114169 0.783894 0.082569 91 99 110
0.115189 0.783894 0.081549 91 98 109
0.117227 0.788991 0.081549 98 105 116
0.116208 0.79103 0.083588 94 101 112
0.123344 0.778797 0.074414 102 109 121
0.118247 0.779817 0.078491 101 108 119
0.118247 0.79001 0.081549 101 108 119
0.123344 0.787971 0.077472 100 106 117
0.122324 0.788991 0.079511 105 113 126
0.110092 0.777778 0.086646 94 101 113
0.110092 0.785933 0.086646 106 112 123
0.110092 0.787971 0.086646 95 101 111
0.110092 0.79001 0.088685 98 105 116
0.110092 0.79103 0.087666 101 109 120
0.117227 0.792049 0.083588 100 106 117
0.121305 0.795107 0.081549 100 108 119
0.125382 0.796126 0.079511 104 112 124
0.122324 0.796126 0.081549 102 109 120
0.121305 0.801223 0.082569 102 110 122
0.120285 0.800204 0.084608 102 109 120
0.125382 0.800204 0.08053 105 112 124
0.123344 0.807339 0.084608 121 129 142
0.115189 0.795107 0.086646 93 100 111
0.110092 0.801223 0.091743 112 118 129
0.11213 0.803262 0.091743 93 100 112
0.110092 0.804281 0.092762 98 105 116
0.11213 0.80632 0.092762 104 111 123
0.114169 0.802243 0.088685 119 126 138
0.117227 0.802243 0.087666 108 115 127
0.117227 0.804281 0.087666 105 113 125
0.117227 0.807339 0.088685 123 131 144
0.111111 0.807339 0.094801 109 115 127
0.119266 0.802243 0.085627 103 110 121
0.120285 0.805301 0.085627 106 113 125
0.122324 0.805301 0.085627 110 117 130
0.108053 0.817533 0.098879 75 80 89
0.108053 0.820591 0.099898 77 85 96
0.109072 0.821611 0.099898 81 89 99
0.117227 0.809378 0.090724 113 121 134
0.110092 0.811417 0.095821 121 128 141
0.110092 0.814475 0.09684 112 119 131
0.117227 0.814475 0.093782 106 113 126
0.119266 0.809378 0.088685 108 116 129
0.119266 0.811417 0.090724 111 118 130
0.121305 0.814475 0.089704 124 131 145
0.125382 0.816514 0.087666 114 122 135
0.115189 0.827727 0.099898 131 140 156
0.121305 0.828746 0.097859 107 116 130
0.124363 0.827727 0.095821 91 98 110
0.140673 0.777778 0.068298 93 100 111
0.138634 0.779817 0.068298 94 102 114
0.14475 0.776758 0.067278 93 101 113
0.143731 0.779817 0.067278 94 101 112
0.147808 0.776758 0.066259 97 106 118
0.153925 0.779817 0.066259 99 107 118
0.154944 0.778797 0.066259 97 104 115
0.158002 0.781855 0.066259 95 102 114
0.155963 0.79103 0.068298 96 103 115
0.127421 0.778797 0.072375 98 106 118
0.12946 0.781855 0.073394 95 101 112
0.133537 0.775739 0.069317 98 106 119
0.130479 0.779817 0.071356 98 105 116
0.12946 0.785933 0.073394 94 101 113
0.12946 0.786952 0.074414 97 104 115
0.12844 0.788991 0.075433 96 104 115
0.12844 0.79103 0.075433 106 113 125
0.132518 0.783894 0.072375 108 115 128
0.131498 0.787971 0.073394 98 106 117
0.137615 0.777778 0.069317 108 116 129
0.136595 0.780836 0.069317 101 109 121
0.136595 0.784913 0.070336 97 105 116
0.136595 0.785933 0.071356 97 105 116
0.135576 0.788991 0.072375 108 115 128
0.136595 0.79001 0.072375 99 107 119
0.137615 0.79103 0.072375 99 106 119
0.139653 0.785933 0.069317 98 105 117
0.140673 0.784913 0.069317 100 108 120
0.141692 0.79103 0.071356 103 111 124
0.12946 0.793068 0.076453 117 125 138
0.126402 0.799185 0.079511 101 109 121
0.12844 0.799185 0.079511 107 115 127
0.130479 0.797146 0.077472 104 112 125
0.12946 0.800204 0.079511 108 116 129
0.126402 0.802243 0.081549 108 116 128
0.130479 0.80632 0.081549 111 118 131
0.134557 0.795107 0.075433 104 112 124
0.137615 0.794088 0.073394 107 115 128
0.134557 0.799185 0.075433 104 112 125
0.139653 0.793068 0.072375 101 108 120
0.140673 0.796126 0.072375 112 121 134
0.141692 0.797146 0.072375 105 113 127
0.140673 0.804281 0.076453 111 119 133
0.142712 0.79103 0.070336 108 115 128
0.14475 0.79103 0.069317 96 104 116
0.14475 0.799185 0.073394 109 117 130
0.143731 0.803262 0.074414 119 127 140
0.142712 0.805301 0.075433 110 119 133
0.143731 0.804281 0.075433 114 122 136
0.14475 0.80632 0.076453 126 135 149
0.147808 0.805301 0.074414 112 120 134
0.149847 0.805301 0.074414 111 119 132
0.152905 0.793068 0.069317 110 119 133
0.150866 0.797146 0.071356 106 114 127
0.150866 0.799185 0.072375 111 119 133
0.152905 0.804281 0.073394 107 116 129
0.126402 0.808359 0.084608 118 126 139
0.131498 0.811417 0.082569 128 137 152
0.133537 0.814475 0.083588 115 125 139
0.137615 0.812436 0.08053 118 126 139
0.138634 0.809378 0.079511 117 126 139
0.141692 0.809378 0.078491 114 122 136
0.138634 0.813456 0.08053 120 128 142
0.140673 0.812436 0.08053 120 129 143
0.12946 0.818552 0.087666 119 127 141
0.135576 0.820591 0.085627 116 125 138
0.141692 0.820591 0.085627 124 132 147
0.12946 0.827727 0.092762 112 120 133
0.132518 0.826707 0.090724 110 119 132
0.126402 0.830785 0.09684 132 142 158
0.12844 0.829766 0.093782 101 110 124
0.131498 0.830785 0.093782 117 126 140
0.12946 0.833843 0.09684 137 146 162
0.126402 0.833843 0.097859 151 161 178
0.130479 0.834862 0.09684 136 145 160
0.132518 0.832824 0.094801 129 138 154
0.134557 0.825688 0.089704 118 126 140
0.135576 0.824669 0.089704 117 126 140
0.136595 0.830785 0.092762 121 133 151
0.135576 0.832824 0.093782 134 144 160
0.134557 0.83792 0.097859 129 137 152
0.138634 0.834862 0.094801 130 139 155
0.141692 0.83792 0.09684 129 138 154
0.140673 0.83894 0.09684 125 134 149
0.142712 0.815494 0.081549 134 144 159
0.147808 0.814475 0.079511 114 122 135
0.142712 0.820591 0.084608 117 126 141
0.146789 0.816514 0.08053 113 121 135
0.150866 0.811417 0.077472 128 137 151
0.150866 0.814475 0.078491 115 123 137
0.158002 0.812436 0.077472 121 129 143
0.151886 0.821611 0.082569 118 126 140
0.152905 0.820591 0.082569 119 127 140
0.155963 0.819572 0.08053 114 122 136
0.142712 0.823649 0.085627 128 136 151
0.14475 0.823649 0.085627 120 129 143
0.158002 0.824669 0.083588 122 131 147
0.14577 0.833843 0.092762 129 138 153
0.146789 0.833843 0.091743 134 143 159
0.149847 0.835882 0.092762 129 139 155
0.14577 0.839959 0.09684 141 150 166
0.14475 0.839959 0.097859 132 142 158
0.148828 0.835882 0.093782 125 134 150
0.146789 0.83894 0.09684 134 143 159
0.152905 0.826707 0.086646 119 128 143
0.156983 0.829766 0.087666 131 141 158
0.152905 0.832824 0.090724 125 135 150
0.155963 0.83894 0.093782 132 141 157
0.093782 0.776758 0.108053 71 77 85
0.095821 0.784913 0.104995 80 85 93
0.09684 0.786952 0.102956 87 93 102
0.09684 0.787971 0.103976 85 91 100
0.097859 0.787971 0.102956 94 100 109
0.094801 0.795107 0.104995 78 83 92
0.095821 0.796126 0.104995 82 87 95
0.095821 0.798165 0.104995 74 79 87
0.093782 0.796126 0.106014 61 67 76
0.093782 0.804281 0.106014 73 81 91
0.094801 0.80632 0.107034 87 95 107
0.097859 0.801223 0.103976 89 94 104
0.099898 0.800204 0.101937 96 103 114
0.100917 0.805301 0.101937 101 106 117
0.094801 0.809378 0.108053 111 121 136
0.095821 0.815494 0.109072 128 135 148
0.100917 0.812436 0.101937 68 75 84
0.100917 0.813456 0.102956 71 78 88
0.097859 0.814475 0.106014 119 127 141
0.100917 0.820591 0.106014 132 139 153
0.094801 0.816514 0.11315 106 113 124
0.094801 0.819572 0.114169 113 120 132
0.094801 0.820591 0.115189 111 118 131
0.095821 0.823649 0.115189 124 132 147
0.097859 0.820591 0.111111 103 110 123
0.098879 0.82263 0.11213 123 131 145
0.099898 0.82263 0.110092 105 113 126
0.102956 0.812436 0.101937 78 84 93
0.101937 0.814475 0.102956 78 85 94
0.101937 0.817533 0.103976 109 119 133
0.101937 0.819572 0.103976 124 133 147
0.102956 0.818552 0.103976 110 119 133
0.101937 0.820591 0.104995 135 143 158
0.104995 0.821611 0.102956 127 135 150
0.106014 0.82263 0.102956 129 138 153
0.099898 0.824669 0.110092 108 117 131
0.100917 0.829766 0.114169 112 120 134
0.108053 0.826707 0.103976 132 139 154
0.106014 0.827727 0.106014 124 133 147
0.101937 0.833843 0.116208 131 139 153
0.103976 0.83792 0.116208 133 142 157
0.107034 0.836901 0.114169 124 133 147
0.093782 0.824669 0.120285 128 134 147
0.095821 0.830785 0.120285 118 125 139
0.094801 0.831804 0.122324 106 114 127
0.09684 0.835882 0.124363 121 129 143
0.09684 0.83894 0.125382 123 131 145
0.110092 0.827727 0.102956 135 142 157
0.111111 0.831804 0.104995 129 136 150
0.11315 0.830785 0.102956 134 143 159
0.11213 0.832824 0.104995 129 137 151
0.115189 0.836901 0.106014 135 143 158
0.11213 0.83792 0.110092 124 132 146
0.118247 0.83792 0.104995 132 139 154
0.119266 0.836901 0.104995 130 138 153
0.122324 0.836901 0.101937 133 142 158
0.143731 0.840979 0.097859 128 137 153
0.151886 0.846075 0.100917 147 158 175
0.108053 0.841998 0.116208 131 138 152
0.108053 0.843017 0.117227 133 141 155
0.094801 0.843017 0.133537 132 141 157
0.094801 0.844037 0.132518 133 142 158
0.095821 0.845056 0.132518 137 146 162
0.097859 0.846075 0.131498 148 157 173
0.098879 0.848114 0.132518 147 157 174
0.101937 0.840979 0.121305 125 134 149
0.102956 0.844037 0.123344 122 131 146
0.103976 0.844037 0.122324 122 131 145
0.104995 0.846075 0.123344 121 128 142
0.103976 0.847095 0.125382 114 122 137
0.107034 0.845056 0.120285 120 130 145
0.106014 0.846075 0.122324 118 126 139
0.101937 0.846075 0.126402 114 121 135
0.101937 0.847095 0.127421 128 135 150
0.102956 0.848114 0.12946 147 154 170
0.106014 0.848114 0.126402 133 141 155
0.109072 0.849134 0.124363 122 131 147
0.106014 0.851172 0.12946 137 145 161
0.106014 0.852192 0.132518 142 151 167
0.116208 0.841998 0.11213 128 135 149
0.117227 0.844037 0.11315 141 150 165
0.123344 0.840979 0.104995 143 152 168
0.118247 0.848114 0.116208 129 137 152
0.120285 0.848114 0.114169 134 142 158
0.124363 0.847095 0.11213 135 143 159
0.122324 0.848114 0.114169 129 137 152
0.123344 0.851172 0.116208 126 134 149
0.125382 0.850153 0.114169 136 144 160
0.111111 0.846075 0.119266 145 152 168
0.110092 0.847095 0.121305 129 138 153
0.110092 0.850153 0.124363 133 142 158
0.111111 0.851172 0.124363 138 147 163
0.115189 0.850153 0.121305 122 130 146
0.117227 0.851172 0.120285 117 127 143
0.115189 0.851172 0.122324 134 144 161
0.111111 0.85423 0.131498 141 150 166
0.111111 0.856269 0.133537 144 153 171
0.11315 0.856269 0.133537 148 158 176
0.118247 0.850153 0.118247 132 140 155
0.118247 0.852192 0.120285 130 139 155
0.118247 0.85423 0.126402 149 160 178
0.114169 0.857288 0.133537 152 162 180
0.125382 0.857288 0.124363 138 147 164
0.124363 0.858308 0.12844 142 152 170
0.093782 0.844037 0.135576 132 141 157
0.094801 0.844037 0.134557 141 150 167
0.094801 0.845056 0.135576 143 152 168
0.093782 0.845056 0.136595 138 146 162
0.094801 0.848114 0.138634 141 150 167
0.095821 0.850153 0.141692 148 158 177
0.097859 0.849134 0.136595 150 160 178
0.097859 0.850153 0.137615 143 153 170
0.100917 0.851172 0.135576 142 152 170
0.094801 0.849134 0.143731 143 153 170
0.097859 0.851172 0.14475 167 178 197
0.100917 0.85525 0.147808 150 159 176
0.100917 0.85525 0.149847 149 159 177
0.101937 0.852192 0.135576 140 150 167
0.102956 0.852192 0.134557 141 151 168
0.103976 0.85423 0.137615 162 172 190
0.101937 0.853211 0.140673 148 157 174
0.103976 0.85423 0.139653 147 157 176
0.108053 0.85423 0.134557 161 169 186
0.101937 0.85525 0.142712 150 161 179
0.102956 0.85525 0.143731 150 161 180
0.102956 0.856269 0.14475 152 163 183
0.101937 0.85525 0.146789 153 163 180
0.102956 0.856269 0.148828 155 165 183
0.103976 0.856269 0.149847 160 169 188
0.09684 0.852192 0.152905 152 161 179
0.100917 0.85525 0.151886 168 178 197
0.100917 0.85525 0.153925 155 167 186
0.098879 0.85423 0.156983 147 156 174
0.094801 0.851172 0.163099 136 145 162
0.097859 0.85423 0.160041 155 163 181
0.107034 0.856269 0.165138 146 155 174
0.107034 0.857288 0.141692 153 163 182
0.109072 0.857288 0.139653 151 160 178
0.104995 0.857288 0.14577 168 178 196
0.106014 0.857288 0.14475 165 175 193
0.109072 0.858308 0.14475 149 157 175
0.108053 0.857288 0.146789 153 162 180
0.109072 0.858308 0.146789 152 161 179
0.103976 0.857288 0.152905 172 184 205
0.103976 0.857288 0.156983 159 169 189
0.107034 0.858308 0.152905 154 163 181
0.108053 0.858308 0.151886 148 157 175
0.107034 0.858308 0.156983 143 153 172
0.107034 0.858308 0.159021 148 158 176
0.108053 0.858308 0.16208 142 151 168
0.11213 0.856269 0.134557 142 153 170
0.11315 0.857288 0.134557 151 163 182
0.116208 0.859327 0.139653 153 162 181
0.11213 0.859327 0.14475 149 158 176
0.117227 0.860347 0.14577 152 162 181
0.114169 0.860347 0.149847 146 155 173
0.120285 0.860347 0.134557 139 149 167
0.118247 0.860347 0.140673 145 154 172
0.121305 0.862385 0.141692 144 154 172
0.123344 0.862385 0.137615 167 176 194
0.124363 0.861366 0.135576 156 165 182
0.124363 0.862385 0.136595 162 171 189
0.123344 0.862385 0.141692 143 152 170
0.121305 0.862385 0.14577 166 178 197
0.11315 0.860347 0.152905 147 155 173
0.11315 0.860347 0.154944 160 168 185
0.116208 0.860347 0.158002 141 151 168
0.117227 0.861366 0.153925 145 154 172
0.116208 0.861366 0.154944 147 156 173
0.11213 0.859327 0.159021 150 159 177
0.114169 0.858308 0.164118 144 153 170
0.119266 0.861366 0.158002 154 167 189
0.125382 0.862385 0.153925 146 155 173
0.122324 0.862385 0.155963 164 173 192
0.122324 0.861366 0.156983 172 182 202
0.124363 0.862385 0.154944 146 156 173
0.119266 0.860347 0.159021 142 155 176
0.123344 0.859327 0.16208 141 148 164
0.124363 0.860347 0.16208 136 143 159
0.123344 0.858308 0.165138 146 154 172
0.124363 0.861366 0.159021 134 144 162
0.126402 0.840979 0.103976 134 143 159
0.126402 0.841998 0.104995 132 141 157
0.127421 0.841998 0.103976 132 141 157
0.12844 0.840979 0.103976 134 143 159
0.12946 0.844037 0.106014 128 137 153
0.131498 0.840979 0.101937 139 148 164
0.133537 0.843017 0.101937 134 143 158
0.130479 0.846075 0.107034 134 143 160
0.133537 0.848114 0.108053 130 139 155
0.12946 0.852192 0.114169 124 132 146
0.130479 0.850153 0.111111 132 140 156
0.132518 0.851172 0.11213 134 142 158
0.130479 0.85423 0.115189 117 126 141
0.134557 0.845056 0.104995 128 137 153
0.135576 0.845056 0.103976 134 143 158
0.135576 0.848114 0.108053 125 134 150
0.138634 0.845056 0.102956 145 155 172
0.140673 0.847095 0.104995 135 146 162
0.135576 0.849134 0.109072 127 136 151
0.139653 0.850153 0.108053 135 144 160
0.141692 0.851172 0.109072 130 139 155
0.134557 0.85525 0.116208 138 147 163
0.136595 0.856269 0.115189 147 156 172
0.141692 0.853211 0.111111 129 137 152
0.132518 0.85525 0.118247 142 153 171
0.126402 0.857288 0.123344 140 149 166
0.12946 0.858308 0.122324 144 152 167
0.12844 0.862385 0.132518 142 151 168
0.133537 0.862385 0.127421 144 154 171
0.131498 0.864424 0.133537 141 151 170
0.137615 0.861366 0.123344 137 147 164
0.140673 0.860347 0.119266 138 146 162
0.135576 0.864424 0.12946 146 156 174
0.137615 0.863405 0.12844 139 149 166
0.138634 0.864424 0.127421 136 146 164
0.136595 0.865443 0.131498 144 155 172
0.137615 0.865443 0.132518 145 155 173
0.14475 0.846075 0.101937 135 145 160
0.14577 0.847095 0.103976 134 144 159
0.142712 0.848114 0.106014 131 140 155
0.14475 0.849134 0.104995 130 139 155
0.142712 0.852192 0.109072 130 139 154
0.147808 0.850153 0.107034 142 152 168
0.148828 0.851172 0.107034 139 149 165
0.149847 0.851172 0.106014 132 141 157
0.150866 0.847095 0.102956 148 159 177
0.155963 0.852192 0.104995 141 150 167
0.158002 0.85525 0.108053 133 142 158
0.143731 0.859327 0.117227 131 140 157
0.14577 0.858308 0.114169 143 151 167
0.146789 0.857288 0.11213 133 142 159
0.148828 0.857288 0.11213 136 146 162
0.148828 0.858308 0.11315 137 146 163
0.153925 0.857288 0.111111 135 145 162
0.152905 0.860347 0.115189 146 158 178
0.151886 0.861366 0.117227 141 153 171
