ply
format ascii 1.0
comment PCL generated
element vertex 1306
property float x
property float y
property float z
property uchar red
property uchar green
property uchar blue
element camera 0
property float view_px
property float view_py
property float view_pz
property float x_axisx
property float x_axisy
property float x_axisz
property float y_axisx
property float y_axisy
property float y_axisz
property float z_axisx
property float z_axisy
property float z_axisz
property float focal
property float scalex
property float scaley
property float centerx
property float centery
property int viewportx
property int viewporty
property float k1
property float k2
end_header
0.176203 0.485625 0.014529 44 50 57
0.176203 0.490665 0.009489 44 51 58
0.176203 0.490665 0.014529 45 53 61
0.181243 0.485625 0.009489 45 51 58
0.181243 0.485625 0.014529 45 51 58
0.181243 0.490665 0.009489 46 52 59
0.181243 0.490665 0.014529 46 53 61
0.186283 0.480585 0.014529 46 51 58
0.191323 0.480585 0.014529 42 49 56
0.186283 0.490665 0.004449 46 52 59
0.191323 0.490665 0.004449 43 50 57
0.186283 0.485625 0.014529 45 51 57
0.186283 0.490665 0.009489 45 51 58
0.186283 0.490665 0.014529 45 51 58
0.191323 0.485625 0.014529 42 48 56
0.191323 0.490665 0.009489 44 50 57
0.191323 0.490665 0.014529 42 48 56
0.176203 0.475545 0.024609 44 50 58
0.176203 0.480585 0.019569 43 50 57
0.176203 0.480585 0.024609 43 50 57
0.181243 0.475545 0.024609 45 51 57
0.181243 0.480585 0.019569 45 51 58
0.186283 0.475545 0.024609 45 51 57
0.186283 0.480585 0.019569 45 51 58
0.186283 0.480585 0.024609 45 50 57
0.191323 0.475545 0.024609 43 49 56
0.191323 0.480585 0.019569 42 48 55
0.191323 0.480585 0.024609 42 48 55
0.186283 0.475545 0.029649 44 50 57
0.191323 0.475545 0.029649 42 49 56
0.176203 0.495705 0.004449 48 54 62
0.176203 0.500745 -0.000591 94 100 111
0.176203 0.500745 0.004449 85 92 102
0.181243 0.495705 -0.000591 59 66 75
0.181243 0.495705 0.004449 46 54 62
0.181243 0.500745 -0.000591 93 100 111
0.176203 0.505785 0.004449 97 105 116
0.176203 0.510825 0.004449 85 91 101
0.181243 0.505785 -0.000591 92 99 109
0.181243 0.505785 0.004449 86 92 103
0.181243 0.510825 0.004449 88 95 105
0.186283 0.495705 -0.000591 57 63 72
0.186283 0.495705 0.004449 46 52 59
0.186283 0.500745 -0.000591 102 110 122
0.191323 0.495705 -0.000591 61 68 76
0.191323 0.495705 0.004449 44 50 58
0.191323 0.500745 -0.000591 94 102 113
0.191323 0.495705 0.009489 46 52 59
0.186283 0.505785 -0.000591 96 105 117
0.186283 0.505785 0.004449 90 97 108
0.186283 0.510825 0.004449 94 101 112
0.191323 0.505785 -0.000591 92 100 111
0.191323 0.505785 0.004449 89 96 107
0.191323 0.510825 0.004449 97 104 115
0.156043 0.515865 0.004449 89 96 106
0.161083 0.515865 0.004449 83 89 99
0.161083 0.520905 0.004449 85 92 102
0.156043 0.515865 0.009489 85 92 102
0.156043 0.520905 0.009489 90 97 107
0.161083 0.515865 0.009489 94 101 111
0.161083 0.520905 0.009489 89 95 106
0.161083 0.525945 0.004449 96 103 114
0.156043 0.525945 0.009489 88 94 104
0.156043 0.530985 0.009489 88 95 105
0.161083 0.525945 0.009489 85 92 102
0.161083 0.530985 0.009489 86 92 102
0.166123 0.515865 0.004449 81 87 97
0.166123 0.520905 0.004449 93 100 111
0.171163 0.515865 0.004449 87 93 103
0.171163 0.520905 0.004449 86 93 104
0.166123 0.525945 0.004449 92 100 112
0.171163 0.525945 0.004449 89 95 106
0.171163 0.530985 0.004449 85 91 101
0.166123 0.525945 0.009489 89 96 107
0.166123 0.530985 0.009489 88 95 105
0.171163 0.525945 0.009489 88 94 104
0.171163 0.530985 0.009489 88 95 105
0.156043 0.536025 0.009489 86 92 102
0.156043 0.541065 0.009489 89 96 106
0.161083 0.536025 0.009489 84 91 101
0.161083 0.541065 0.009489 88 95 105
0.156043 0.546105 0.009489 92 99 110
0.156043 0.546105 0.014529 100 107 118
0.156043 0.551145 0.009489 83 90 100
0.156043 0.551145 0.014529 81 88 97
0.161083 0.546105 0.009489 80 87 96
0.161083 0.551145 0.009489 83 90 100
0.166123 0.536025 0.009489 84 90 100
0.166123 0.541065 0.009489 93 101 112
0.171163 0.536025 0.009489 85 91 101
0.171163 0.541065 0.009489 89 97 108
0.166123 0.546105 0.009489 87 94 105
0.166123 0.551145 0.009489 83 90 99
0.171163 0.546105 0.009489 86 93 103
0.171163 0.551145 0.009489 88 94 104
0.176203 0.515865 0.004449 84 91 101
0.176203 0.520905 0.004449 88 95 106
0.181243 0.515865 0.004449 90 98 108
0.181243 0.520905 0.004449 92 99 110
0.176203 0.525945 0.004449 104 112 124
0.176203 0.530985 0.004449 81 88 97
0.181243 0.525945 0.004449 85 92 103
0.181243 0.530985 0.004449 88 94 104
0.176203 0.530985 0.009489 82 88 98
0.186283 0.515865 0.004449 90 97 107
0.186283 0.520905 0.004449 94 102 113
0.191323 0.515865 0.004449 85 92 103
0.191323 0.520905 0.004449 91 99 110
0.186283 0.525945 0.004449 90 97 108
0.186283 0.530985 0.004449 88 94 104
0.191323 0.525945 0.004449 88 95 105
0.191323 0.530985 0.004449 85 91 101
0.181243 0.536025 0.004449 84 92 102
0.176203 0.536025 0.009489 86 92 102
0.176203 0.541065 0.009489 85 92 102
0.181243 0.536025 0.009489 93 99 109
0.181243 0.541065 0.009489 83 90 99
0.176203 0.546105 0.009489 90 97 108
0.176203 0.551145 0.009489 89 97 107
0.181243 0.546105 0.009489 88 95 106
0.181243 0.551145 0.009489 89 96 106
0.186283 0.536025 0.004449 79 86 96
0.191323 0.536025 0.004449 85 92 102
0.191323 0.541065 0.004449 95 102 113
0.186283 0.536025 0.009489 79 86 96
0.186283 0.541065 0.009489 86 93 103
0.191323 0.541065 0.009489 92 100 111
0.186283 0.546105 0.009489 88 94 104
0.186283 0.551145 0.009489 86 93 103
0.191323 0.546105 0.009489 89 96 106
0.191323 0.551145 0.009489 85 91 101
0.060283 0.394905 0.115329 45 54 64
0.060283 0.399945 0.115329 46 55 65
0.060283 0.404985 0.115329 48 57 67
0.060283 0.410025 0.115329 49 59 69
0.070363 0.394905 0.105249 48 56 66
0.070363 0.399945 0.105249 47 56 65
0.065323 0.394905 0.110289 48 57 66
0.065323 0.394905 0.115329 47 56 65
0.065323 0.399945 0.110289 48 57 66
0.065323 0.399945 0.115329 47 56 66
0.070363 0.394905 0.110289 48 56 65
0.070363 0.399945 0.110289 48 57 66
0.065323 0.410025 0.105249 49 59 69
0.070363 0.404985 0.105249 47 56 65
0.070363 0.410025 0.100209 48 57 66
0.070363 0.410025 0.105249 48 57 67
0.065323 0.404985 0.110289 47 56 66
0.065323 0.404985 0.115329 47 56 66
0.065323 0.410025 0.110289 48 58 68
0.065323 0.410025 0.115329 49 59 69
0.070363 0.404985 0.110289 48 57 66
0.070363 0.425145 0.095169 47 55 64
0.070363 0.430185 0.095169 46 54 63
0.060283 0.415065 0.110289 51 60 69
0.060283 0.415065 0.115329 48 57 66
0.060283 0.420105 0.110289 49 58 67
0.060283 0.420105 0.115329 47 56 66
0.060283 0.425145 0.110289 48 57 67
0.060283 0.425145 0.115329 46 56 66
0.060283 0.430185 0.110289 46 56 66
0.060283 0.430185 0.115329 47 57 67
0.065323 0.415065 0.105249 47 56 66
0.065323 0.420105 0.105249 47 55 65
0.070363 0.415065 0.100209 48 57 67
0.070363 0.415065 0.105249 48 57 66
0.070363 0.420105 0.100209 48 56 66
0.070363 0.420105 0.105249 48 57 66
0.065323 0.415065 0.110289 47 56 66
0.065323 0.420105 0.110289 49 58 67
0.065323 0.425145 0.105249 48 57 66
0.065323 0.430185 0.100209 47 56 66
0.065323 0.430185 0.105249 49 58 68
0.070363 0.425145 0.100209 47 56 65
0.070363 0.425145 0.105249 46 55 65
0.070363 0.430185 0.100209 47 55 64
0.065323 0.425145 0.110289 47 57 66
0.065323 0.430185 0.110289 48 57 67
0.070363 0.435225 0.090129 47 56 66
0.070363 0.435225 0.095169 46 55 64
0.070363 0.440265 0.090129 46 55 64
0.070363 0.440265 0.095169 47 56 66
0.070363 0.450345 0.085089 52 60 69
0.070363 0.445305 0.090129 46 54 62
0.070363 0.445305 0.095169 47 56 66
0.070363 0.450345 0.090129 54 62 71
0.070363 0.450345 0.095169 46 55 64
0.060283 0.435225 0.110289 47 57 66
0.060283 0.435225 0.115329 48 57 66
0.060283 0.440265 0.110289 48 57 67
0.060283 0.440265 0.115329 46 55 65
0.060283 0.445305 0.110289 48 59 70
0.060283 0.445305 0.115329 46 56 67
0.060283 0.450345 0.110289 48 59 71
0.060283 0.450345 0.115329 47 58 69
0.065323 0.435225 0.100209 46 56 66
0.065323 0.435225 0.105249 48 58 68
0.065323 0.440265 0.100209 48 58 68
0.065323 0.440265 0.105249 48 58 68
0.070363 0.435225 0.100209 46 55 65
0.070363 0.440265 0.100209 48 57 67
0.065323 0.435225 0.110289 46 55 66
0.065323 0.440265 0.110289 48 58 68
0.065323 0.445305 0.100209 47 57 68
0.065323 0.445305 0.105249 49 60 71
0.065323 0.450345 0.100209 48 58 68
0.065323 0.450345 0.105249 49 60 71
0.070363 0.445305 0.100209 47 57 67
0.065323 0.445305 0.110289 48 59 71
0.065323 0.450345 0.110289 49 60 72
0.070363 0.455385 0.085089 54 63 73
0.070363 0.460425 0.085089 54 63 72
0.070363 0.455385 0.090129 51 60 71
0.070363 0.455385 0.095169 47 56 66
0.070363 0.460425 0.090129 53 62 72
0.070363 0.460425 0.095169 47 58 68
0.070363 0.465465 0.090129 47 56 67
0.070363 0.465465 0.095169 48 58 69
0.070363 0.470505 0.090129 47 57 68
0.070363 0.470505 0.095169 49 59 70
0.060283 0.455385 0.110289 46 57 69
0.060283 0.455385 0.115329 46 57 69
0.060283 0.460425 0.110289 46 56 67
0.060283 0.460425 0.115329 44 54 64
0.060283 0.465465 0.115329 45 54 64
0.060283 0.470505 0.115329 46 55 64
0.065323 0.455385 0.100209 47 58 68
0.065323 0.455385 0.105249 48 59 70
0.065323 0.460425 0.100209 49 60 71
0.065323 0.460425 0.105249 47 58 70
0.070363 0.455385 0.100209 47 57 67
0.070363 0.460425 0.100209 49 60 70
0.065323 0.455385 0.110289 47 59 70
0.065323 0.460425 0.110289 46 56 67
0.065323 0.465465 0.100209 47 58 69
0.065323 0.465465 0.105249 47 57 68
0.065323 0.470505 0.105249 48 58 69
0.070363 0.465465 0.100209 48 59 70
0.070363 0.470505 0.100209 48 59 70
0.065323 0.465465 0.110289 46 56 66
0.065323 0.465465 0.115329 44 54 65
0.065323 0.470505 0.110289 46 56 67
0.065323 0.470505 0.115329 44 54 65
0.090523 0.415065 0.075009 45 52 60
0.090523 0.420105 0.075009 47 54 62
0.085483 0.430185 0.075009 49 55 62
0.090523 0.425145 0.069969 47 53 61
0.090523 0.425145 0.075009 47 54 63
0.090523 0.430185 0.069969 55 59 64
0.090523 0.430185 0.075009 50 56 63
0.095563 0.399945 0.075009 48 56 64
0.100603 0.394905 0.075009 46 54 62
0.100603 0.399945 0.075009 47 54 63
0.095563 0.404985 0.075009 48 55 63
0.095563 0.410025 0.075009 48 56 65
0.100603 0.404985 0.069969 46 54 62
0.100603 0.404985 0.075009 48 55 63
0.100603 0.410025 0.069969 47 55 64
0.100603 0.410025 0.075009 47 55 63
0.105643 0.394905 0.075009 46 53 60
0.105643 0.399945 0.069969 46 54 62
0.105643 0.399945 0.075009 46 54 62
0.110683 0.394905 0.075009 47 53 60
0.110683 0.399945 0.069969 46 53 61
0.110683 0.399945 0.075009 46 53 61
0.105643 0.410025 0.064929 45 52 59
0.110683 0.404985 0.064929 48 54 62
0.110683 0.410025 0.064929 45 52 59
0.105643 0.404985 0.069969 46 53 61
0.105643 0.404985 0.075009 47 54 63
0.105643 0.410025 0.069969 47 54 61
0.110683 0.404985 0.069969 47 53 61
0.110683 0.410025 0.069969 47 54 62
0.110683 0.425145 0.054849 44 52 60
0.110683 0.430185 0.054849 47 53 60
0.100603 0.420105 0.064929 45 53 62
0.095563 0.415065 0.069969 46 54 63
0.095563 0.415065 0.075009 45 54 62
0.095563 0.420105 0.069969 44 51 59
0.095563 0.420105 0.075009 45 52 60
0.100603 0.415065 0.069969 47 55 64
0.100603 0.420105 0.069969 45 53 61
0.095563 0.425145 0.064929 53 58 64
0.095563 0.430185 0.064929 52 57 64
0.100603 0.425145 0.064929 45 52 59
0.100603 0.430185 0.059889 50 54 60
0.100603 0.430185 0.064929 52 57 63
0.095563 0.425145 0.069969 47 53 60
0.095563 0.425145 0.075009 47 53 60
0.095563 0.430185 0.069969 54 59 66
0.100603 0.425145 0.069969 45 52 59
0.105643 0.415065 0.064929 46 53 61
0.105643 0.420105 0.059889 46 54 62
0.105643 0.420105 0.064929 46 55 64
0.110683 0.415065 0.059889 44 51 58
0.110683 0.415065 0.064929 45 51 58
0.110683 0.420105 0.059889 45 52 59
0.105643 0.415065 0.069969 46 54 62
0.105643 0.420105 0.069969 46 55 64
0.105643 0.425145 0.059889 44 52 61
0.105643 0.425145 0.064929 45 53 61
0.105643 0.430185 0.059889 48 54 60
0.105643 0.430185 0.064929 50 55 60
0.110683 0.425145 0.059889 46 53 61
0.110683 0.430185 0.059889 46 53 59
0.080443 0.394905 0.095169 47 55 64
0.080443 0.399945 0.095169 49 57 66
0.075403 0.404985 0.095169 50 57 65
0.075403 0.410025 0.095169 48 56 65
0.080443 0.404985 0.090129 49 57 66
0.080443 0.404985 0.095169 49 57 65
0.080443 0.410025 0.090129 47 55 63
0.080443 0.410025 0.095169 48 56 64
0.085483 0.399945 0.085089 49 57 66
0.090523 0.394905 0.085089 46 54 62
0.090523 0.399945 0.080049 48 55 64
0.090523 0.399945 0.085089 47 55 63
0.085483 0.394905 0.090129 47 54 62
0.085483 0.394905 0.095169 47 55 63
0.085483 0.399945 0.090129 47 56 65
0.085483 0.399945 0.095169 48 56 66
0.090523 0.394905 0.090129 47 54 62
0.090523 0.399945 0.090129 48 55 63
0.085483 0.404985 0.085089 48 57 66
0.085483 0.410025 0.085089 47 55 63
0.090523 0.404985 0.080049 48 56 65
0.090523 0.404985 0.085089 48 56 65
0.090523 0.410025 0.080049 47 55 64
0.090523 0.410025 0.085089 48 56 65
0.085483 0.404985 0.090129 48 56 65
0.085483 0.410025 0.090129 48 55 63
0.075403 0.394905 0.100209 48 57 65
0.075403 0.394905 0.105249 48 57 66
0.075403 0.399945 0.100209 48 57 66
0.075403 0.399945 0.105249 48 56 65
0.080443 0.394905 0.100209 47 56 65
0.080443 0.399945 0.100209 49 57 67
0.075403 0.404985 0.100209 48 56 65
0.075403 0.404985 0.105249 47 56 65
0.075403 0.410025 0.100209 48 56 65
0.080443 0.420105 0.085089 49 57 65
0.075403 0.415065 0.095169 47 56 65
0.075403 0.420105 0.095169 45 54 62
0.080443 0.415065 0.090129 47 56 65
0.080443 0.415065 0.095169 47 56 65
0.080443 0.420105 0.090129 47 55 64
0.080443 0.420105 0.095169 47 56 65
0.080443 0.425145 0.085089 48 56 65
0.080443 0.430185 0.080049 49 56 64
0.080443 0.430185 0.085089 48 55 64
0.075403 0.425145 0.090129 45 53 62
0.075403 0.425145 0.095169 46 54 62
0.075403 0.430185 0.090129 47 55 63
0.075403 0.430185 0.095169 46 54 63
0.080443 0.425145 0.090129 46 54 62
0.080443 0.430185 0.090129 46 55 63
0.085483 0.415065 0.080049 47 54 62
0.085483 0.415065 0.085089 47 54 62
0.085483 0.420105 0.080049 49 58 66
0.085483 0.420105 0.085089 49 57 66
0.090523 0.415065 0.080049 46 53 61
0.090523 0.420105 0.080049 49 57 65
0.085483 0.415065 0.090129 47 55 63
0.085483 0.420105 0.090129 47 56 65
0.085483 0.425145 0.080049 49 57 66
0.085483 0.425145 0.085089 49 57 65
0.085483 0.430185 0.080049 48 55 63
0.085483 0.430185 0.085089 49 56 64
0.090523 0.425145 0.080049 50 58 67
0.075403 0.415065 0.100209 47 56 65
0.075403 0.420105 0.100209 47 56 65
0.095563 0.394905 0.080049 47 54 62
0.095563 0.394905 0.085089 47 54 62
0.095563 0.399945 0.080049 47 54 62
0.100603 0.394905 0.080049 46 53 62
0.100603 0.399945 0.080049 49 56 64
0.095563 0.404985 0.080049 47 55 64
0.095563 0.410025 0.080049 48 56 65
0.080443 0.440265 0.075009 54 59 65
0.080443 0.445305 0.075009 48 56 64
0.080443 0.450345 0.075009 44 53 62
0.090523 0.435225 0.064929 46 55 64
0.090523 0.440265 0.064929 44 52 61
0.085483 0.435225 0.075009 54 59 65
0.085483 0.440265 0.069969 50 58 66
0.085483 0.440265 0.075009 52 58 65
0.090523 0.435225 0.069969 51 57 63
0.090523 0.435225 0.075009 53 57 63
0.090523 0.440265 0.069969 48 56 65
0.090523 0.445305 0.064929 47 55 62
0.090523 0.450345 0.059889 46 54 62
0.090523 0.450345 0.064929 47 54 62
0.085483 0.445305 0.069969 46 54 63
0.085483 0.445305 0.075009 47 55 64
0.085483 0.450345 0.069969 46 54 63
0.085483 0.450345 0.075009 45 53 62
0.090523 0.445305 0.069969 47 55 63
0.090523 0.450345 0.069969 46 54 62
0.090523 0.470505 0.054849 48 56 64
0.075403 0.460425 0.075009 47 57 68
0.080443 0.455385 0.069969 47 57 66
0.080443 0.455385 0.075009 46 55 65
0.080443 0.460425 0.069969 47 58 69
0.080443 0.460425 0.075009 47 58 69
0.075403 0.465465 0.075009 43 52 62
0.075403 0.470505 0.075009 52 60 69
0.080443 0.465465 0.069969 47 55 63
0.080443 0.465465 0.075009 45 53 62
0.080443 0.470505 0.069969 48 56 65
0.080443 0.470505 0.075009 49 57 66
0.085483 0.455385 0.064929 45 55 65
0.085483 0.460425 0.064929 46 57 68
0.090523 0.455385 0.059889 46 55 64
0.090523 0.455385 0.064929 46 55 64
0.090523 0.460425 0.059889 47 57 68
0.090523 0.460425 0.064929 46 57 68
0.085483 0.455385 0.069969 46 56 65
0.085483 0.460425 0.069969 46 57 68
0.090523 0.455385 0.069969 45 54 63
0.085483 0.465465 0.064929 47 55 65
0.085483 0.470505 0.064929 48 56 65
0.090523 0.465465 0.059889 48 57 66
0.090523 0.465465 0.064929 47 56 66
0.090523 0.470505 0.059889 48 56 64
0.090523 0.470505 0.064929 50 57 65
0.085483 0.465465 0.069969 47 55 65
0.085483 0.470505 0.069969 48 56 65
0.100603 0.440265 0.054849 44 52 60
0.095563 0.450345 0.054849 46 53 60
0.100603 0.445305 0.054849 44 51 59
0.100603 0.450345 0.049809 46 52 59
0.100603 0.450345 0.054849 45 52 59
0.105643 0.435225 0.054849 47 53 59
0.105643 0.440265 0.049809 45 53 60
0.105643 0.440265 0.054849 45 52 60
0.110683 0.435225 0.054849 47 52 58
0.110683 0.440265 0.049809 46 53 61
0.110683 0.440265 0.054849 47 53 60
0.105643 0.450345 0.044769 44 51 59
0.110683 0.445305 0.044769 46 53 61
0.110683 0.450345 0.044769 45 52 60
0.105643 0.445305 0.049809 45 53 61
0.105643 0.445305 0.054849 45 52 61
0.105643 0.450345 0.049809 45 52 59
0.110683 0.445305 0.049809 46 53 61
0.095563 0.435225 0.064929 50 57 65
0.095563 0.440265 0.059889 46 54 61
0.095563 0.440265 0.064929 44 52 60
0.100603 0.435225 0.059889 48 54 62
0.100603 0.435225 0.064929 48 55 62
0.100603 0.440265 0.059889 44 52 60
0.095563 0.435225 0.069969 53 59 66
0.095563 0.445305 0.059889 45 52 60
0.095563 0.445305 0.064929 46 52 60
0.095563 0.450345 0.059889 46 53 60
0.100603 0.445305 0.059889 44 51 59
0.105643 0.435225 0.059889 47 53 60
0.105643 0.440265 0.059889 44 52 60
0.110683 0.435225 0.059889 47 51 57
0.095563 0.455385 0.054849 46 54 62
0.095563 0.460425 0.054849 47 55 64
0.100603 0.455385 0.049809 48 54 61
0.100603 0.455385 0.054849 47 53 61
0.100603 0.460425 0.049809 45 53 62
0.100603 0.460425 0.054849 47 55 64
0.100603 0.465465 0.044769 47 55 63
0.100603 0.470505 0.044769 47 55 65
0.095563 0.465465 0.049809 47 55 64
0.095563 0.465465 0.054849 46 54 63
0.095563 0.470505 0.049809 49 56 64
0.095563 0.470505 0.054849 47 55 63
0.100603 0.465465 0.049809 47 55 63
0.100603 0.465465 0.054849 45 53 62
0.100603 0.470505 0.049809 47 55 64
0.105643 0.455385 0.044769 46 53 60
0.105643 0.460425 0.039729 50 56 64
0.105643 0.460425 0.044769 48 54 62
0.110683 0.455385 0.039729 46 52 60
0.110683 0.455385 0.044769 45 52 59
0.110683 0.460425 0.039729 45 53 60
0.105643 0.455385 0.049809 48 54 60
0.105643 0.460425 0.049809 45 52 60
0.105643 0.465465 0.039729 48 54 62
0.105643 0.465465 0.044769 48 56 64
0.105643 0.470505 0.039729 46 54 62
0.105643 0.470505 0.044769 47 55 64
0.110683 0.465465 0.039729 47 53 60
0.110683 0.470505 0.039729 46 53 61
0.095563 0.455385 0.059889 46 54 62
0.095563 0.460425 0.059889 46 55 65
0.095563 0.465465 0.059889 45 54 64
0.095563 0.470505 0.059889 48 56 65
0.075403 0.435225 0.085089 46 55 63
0.075403 0.440265 0.085089 47 54 62
0.080443 0.435225 0.080049 49 55 63
0.080443 0.435225 0.085089 46 53 62
0.080443 0.440265 0.080049 52 57 63
0.080443 0.440265 0.085089 50 56 62
0.075403 0.435225 0.090129 47 55 64
0.075403 0.435225 0.095169 47 55 65
0.075403 0.440265 0.090129 47 55 64
0.075403 0.445305 0.080049 55 61 68
0.075403 0.445305 0.085089 52 57 63
0.075403 0.450345 0.080049 48 56 65
0.075403 0.450345 0.085089 52 58 66
0.080443 0.445305 0.080049 52 58 66
0.080443 0.450345 0.080049 46 54 63
0.075403 0.445305 0.090129 48 54 62
0.075403 0.450345 0.090129 53 59 66
0.085483 0.435225 0.080049 52 57 64
0.085483 0.440265 0.080049 50 54 61
0.075403 0.455385 0.080049 46 56 66
0.075403 0.455385 0.085089 53 62 72
0.075403 0.460425 0.080049 49 59 70
0.075403 0.460425 0.085089 52 61 70
0.080443 0.455385 0.080049 46 55 64
0.075403 0.465465 0.080049 50 58 66
0.075403 0.465465 0.085089 48 56 65
0.075403 0.470505 0.080049 54 60 68
0.075403 0.470505 0.085089 55 62 71
0.080443 0.470505 0.080049 52 60 69
0.075403 0.465465 0.090129 60 68 77
0.075403 0.470505 0.090129 47 58 68
0.050203 0.394905 0.135489 44 51 59
0.050203 0.399945 0.130449 46 55 65
0.050203 0.399945 0.135489 44 51 60
0.050203 0.404985 0.130449 45 54 64
0.050203 0.404985 0.135489 44 52 61
0.050203 0.410025 0.135489 42 50 58
0.045163 0.394905 0.145569 43 51 59
0.045163 0.399945 0.145569 44 53 62
0.050203 0.394905 0.140529 42 49 57
0.050203 0.394905 0.145569 43 50 58
0.050203 0.399945 0.140529 44 52 60
0.050203 0.399945 0.145569 46 55 64
0.045163 0.394905 0.150609 43 52 61
0.045163 0.394905 0.155649 46 56 66
0.045163 0.399945 0.150609 46 56 66
0.045163 0.399945 0.155649 49 59 71
0.050203 0.399945 0.150609 46 56 66
0.050203 0.399945 0.155649 48 59 71
0.050203 0.404985 0.140529 43 51 60
0.050203 0.404985 0.145569 43 52 61
0.050203 0.410025 0.140529 43 51 60
0.050203 0.410025 0.145569 45 54 63
0.050203 0.404985 0.150609 43 52 62
0.050203 0.404985 0.155649 46 57 68
0.050203 0.410025 0.150609 47 57 68
0.050203 0.410025 0.155649 49 58 68
0.050203 0.415065 0.135489 45 54 64
0.050203 0.420105 0.135489 43 52 61
0.050203 0.425145 0.135489 45 53 62
0.050203 0.415065 0.140529 45 54 64
0.050203 0.415065 0.145569 44 53 62
0.050203 0.420105 0.140529 45 54 63
0.050203 0.420105 0.145569 46 55 65
0.050203 0.415065 0.150609 46 56 67
0.050203 0.415065 0.155649 47 56 66
0.050203 0.420105 0.150609 46 57 68
0.050203 0.420105 0.155649 48 57 67
0.050203 0.425145 0.140529 45 53 63
0.050203 0.425145 0.145569 45 55 65
0.050203 0.425145 0.150609 46 57 69
0.055243 0.394905 0.125409 46 54 64
0.055243 0.399945 0.125409 45 54 63
0.060283 0.394905 0.120369 47 56 65
0.060283 0.394905 0.125409 48 56 65
0.060283 0.399945 0.120369 46 55 65
0.060283 0.399945 0.125409 46 54 64
0.055243 0.394905 0.130449 45 53 62
0.055243 0.399945 0.130449 44 52 61
0.055243 0.399945 0.135489 44 53 62
0.055243 0.404985 0.125409 47 56 66
0.055243 0.410025 0.125409 45 54 63
0.060283 0.404985 0.120369 47 57 66
0.060283 0.404985 0.125409 47 56 65
0.060283 0.410025 0.120369 46 56 65
0.060283 0.410025 0.125409 46 55 64
0.055243 0.404985 0.130449 47 56 66
0.055243 0.410025 0.130449 44 52 60
0.055243 0.415065 0.125409 46 55 65
0.055243 0.420105 0.125409 47 57 66
0.060283 0.415065 0.120369 45 54 63
0.060283 0.415065 0.125409 46 55 64
0.060283 0.420105 0.120369 46 56 66
0.055243 0.415065 0.130449 45 54 64
0.055243 0.415065 0.135489 43 53 63
0.055243 0.420105 0.130449 44 52 62
0.055243 0.420105 0.135489 44 52 62
0.055243 0.425145 0.125409 46 56 66
0.055243 0.430185 0.120369 44 53 62
0.055243 0.430185 0.125409 43 53 62
0.060283 0.425145 0.120369 46 56 66
0.060283 0.430185 0.120369 46 55 65
0.055243 0.425145 0.130449 44 53 63
0.055243 0.425145 0.135489 44 53 62
0.055243 0.430185 0.130449 44 53 62
0.055243 0.430185 0.135489 45 54 63
0.055243 0.420105 0.155649 48 57 67
0.055243 0.425145 0.140529 45 53 63
0.055243 0.425145 0.145569 46 57 68
0.055243 0.430185 0.140529 46 55 65
0.055243 0.430185 0.145569 47 57 67
0.055243 0.425145 0.150609 46 57 67
0.055243 0.425145 0.155649 46 56 66
0.055243 0.430185 0.150609 46 55 66
0.055243 0.430185 0.155649 47 56 66
0.045163 0.394905 0.160689 47 56 67
0.045163 0.394905 0.165729 46 55 64
0.045163 0.399945 0.160689 47 57 69
0.050203 0.394905 0.160689 47 57 67
0.050203 0.394905 0.165729 46 55 65
0.050203 0.399945 0.160689 46 56 66
0.050203 0.399945 0.165729 46 55 65
0.050203 0.394905 0.170769 45 54 64
0.050203 0.394905 0.175809 44 53 64
0.050203 0.399945 0.170769 44 53 63
0.050203 0.399945 0.175809 44 53 63
0.050203 0.404985 0.160689 46 55 66
0.050203 0.404985 0.165729 45 54 64
0.050203 0.410025 0.160689 47 56 65
0.050203 0.410025 0.165729 46 54 64
0.050203 0.404985 0.170769 45 54 64
0.050203 0.410025 0.170769 47 55 64
0.050203 0.415065 0.160689 46 55 66
0.050203 0.415065 0.165729 45 54 64
0.050203 0.420105 0.160689 47 56 65
0.055243 0.394905 0.175809 47 57 69
0.055243 0.399945 0.175809 47 58 70
0.055243 0.410025 0.165729 46 55 65
0.055243 0.404985 0.170769 46 55 65
0.055243 0.404985 0.175809 49 60 72
0.055243 0.410025 0.170769 45 55 65
0.055243 0.410025 0.175809 50 61 73
0.060283 0.404985 0.175809 51 63 76
0.060283 0.410025 0.175809 51 64 77
0.055243 0.394905 0.180849 51 63 75
0.055243 0.399945 0.180849 51 64 76
0.060283 0.394905 0.180849 52 65 79
0.060283 0.394905 0.185889 54 69 85
0.060283 0.399945 0.180849 53 67 81
0.060283 0.399945 0.185889 53 68 82
0.060283 0.404985 0.180849 52 65 79
0.060283 0.404985 0.185889 52 69 84
0.060283 0.410025 0.180849 52 66 79
0.065323 0.394905 0.185889 58 75 91
0.065323 0.399945 0.185889 59 74 89
0.065323 0.394905 0.190929 62 79 96
0.065323 0.399945 0.190929 58 76 94
0.070363 0.394905 0.190929 63 81 99
0.070363 0.394905 0.195969 62 81 99
0.070363 0.399945 0.190929 61 77 95
0.070363 0.399945 0.195969 60 78 96
0.065323 0.404985 0.180849 53 69 85
0.065323 0.404985 0.185889 57 73 89
0.065323 0.410025 0.180849 56 70 85
0.065323 0.410025 0.185889 58 75 91
0.070363 0.404985 0.185889 56 73 90
0.070363 0.410025 0.185889 60 76 93
0.070363 0.404985 0.190929 60 77 93
0.070363 0.410025 0.190929 57 75 92
0.055243 0.415065 0.160689 45 53 63
0.055243 0.415065 0.165729 45 54 65
0.055243 0.420105 0.160689 46 54 64
0.055243 0.420105 0.165729 45 55 66
0.055243 0.415065 0.170769 48 58 69
0.055243 0.415065 0.175809 52 63 75
0.055243 0.420105 0.170769 48 58 69
0.060283 0.415065 0.170769 49 61 73
0.060283 0.415065 0.175809 51 64 77
0.060283 0.420105 0.170769 48 60 73
0.060283 0.420105 0.175809 50 63 76
0.055243 0.425145 0.160689 46 55 65
0.055243 0.425145 0.165729 45 55 66
0.055243 0.430185 0.160689 46 55 65
0.060283 0.425145 0.165729 47 58 69
0.060283 0.430185 0.160689 47 56 66
0.060283 0.430185 0.165729 46 57 68
0.060283 0.425145 0.170769 50 62 75
0.060283 0.430185 0.170769 50 62 75
0.065323 0.415065 0.175809 52 67 81
0.065323 0.420105 0.175809 53 67 81
0.065323 0.430185 0.165729 50 62 75
0.065323 0.425145 0.170769 50 64 77
0.065323 0.425145 0.175809 53 67 81
0.065323 0.430185 0.170769 51 65 79
0.065323 0.430185 0.175809 52 67 83
0.070363 0.425145 0.175809 55 71 86
0.070363 0.430185 0.175809 53 69 85
0.060283 0.415065 0.180849 53 67 81
0.065323 0.415065 0.180849 55 70 85
0.065323 0.420105 0.180849 56 70 86
0.070363 0.415065 0.180849 60 76 91
0.070363 0.415065 0.185889 61 77 94
0.070363 0.420105 0.180849 58 74 90
0.070363 0.420105 0.185889 59 76 93
0.070363 0.425145 0.180849 57 73 88
0.070363 0.430185 0.180849 55 71 88
0.055243 0.435225 0.120369 44 52 61
0.055243 0.435225 0.125409 43 52 61
0.055243 0.440265 0.120369 43 52 61
0.055243 0.440265 0.125409 43 52 60
0.060283 0.435225 0.120369 45 54 64
0.060283 0.440265 0.120369 43 53 62
0.055243 0.435225 0.130449 44 53 62
0.055243 0.435225 0.135489 47 55 65
0.055243 0.440265 0.130449 44 52 60
0.055243 0.440265 0.135489 43 51 60
0.055243 0.445305 0.120369 45 53 63
0.055243 0.445305 0.125409 45 54 63
0.055243 0.450345 0.125409 47 56 66
0.060283 0.445305 0.120369 45 54 64
0.060283 0.450345 0.120369 46 56 67
0.060283 0.450345 0.125409 50 59 70
0.055243 0.445305 0.130449 46 55 65
0.055243 0.445305 0.135489 48 58 68
0.055243 0.450345 0.130449 49 59 69
0.055243 0.450345 0.135489 51 61 72
0.060283 0.450345 0.130449 52 62 73
0.060283 0.450345 0.135489 51 61 72
0.055243 0.435225 0.140529 47 57 68
0.055243 0.435225 0.145569 47 58 69
0.055243 0.440265 0.140529 47 57 67
0.055243 0.440265 0.145569 47 56 67
0.055243 0.435225 0.150609 47 57 67
0.055243 0.435225 0.155649 47 56 66
0.055243 0.440265 0.150609 45 54 65
0.055243 0.440265 0.155649 46 55 65
0.060283 0.435225 0.155649 47 56 66
0.060283 0.440265 0.150609 45 53 63
0.060283 0.440265 0.155649 45 54 64
0.055243 0.445305 0.140529 46 57 67
0.055243 0.445305 0.145569 44 53 63
0.055243 0.450345 0.140529 47 58 70
0.060283 0.445305 0.140529 47 56 66
0.060283 0.445305 0.145569 45 54 64
0.060283 0.450345 0.140529 47 57 67
0.060283 0.450345 0.145569 46 55 65
0.055243 0.445305 0.150609 45 53 63
0.060283 0.445305 0.150609 45 54 64
0.060283 0.445305 0.155649 49 59 69
0.060283 0.450345 0.150609 47 57 68
0.060283 0.450345 0.155649 48 59 71
0.065323 0.450345 0.155649 50 63 76
0.060283 0.455385 0.120369 45 54 65
0.060283 0.455385 0.125409 46 55 65
0.060283 0.460425 0.120369 44 53 62
0.060283 0.460425 0.125409 46 55 64
0.060283 0.455385 0.130449 46 56 66
0.060283 0.455385 0.135489 46 56 66
0.060283 0.460425 0.130449 48 57 66
0.060283 0.460425 0.135489 45 54 63
0.060283 0.465465 0.120369 44 53 62
0.060283 0.465465 0.125409 45 53 62
0.060283 0.470505 0.120369 46 53 61
0.060283 0.470505 0.125409 55 59 66
0.060283 0.465465 0.130449 45 53 62
0.060283 0.465465 0.135489 45 54 64
0.060283 0.470505 0.130449 46 54 63
0.065323 0.470505 0.120369 54 59 67
0.065323 0.470505 0.125409 64 67 73
0.065323 0.465465 0.135489 47 57 67
0.065323 0.470505 0.130449 47 55 65
0.065323 0.470505 0.135489 48 57 68
0.060283 0.455385 0.140529 46 55 65
0.060283 0.455385 0.145569 48 58 68
0.060283 0.460425 0.140529 50 59 70
0.060283 0.460425 0.145569 49 59 71
0.060283 0.455385 0.150609 49 59 71
0.060283 0.455385 0.155649 51 62 74
0.060283 0.460425 0.150609 48 58 69
0.060283 0.465465 0.140529 50 61 72
0.065323 0.460425 0.145569 52 64 76
0.065323 0.455385 0.150609 47 58 69
0.065323 0.455385 0.155649 49 61 74
0.065323 0.460425 0.150609 50 62 75
0.065323 0.460425 0.155649 50 63 77
0.070363 0.460425 0.155649 54 69 83
0.065323 0.465465 0.140529 49 60 71
0.065323 0.465465 0.145569 47 59 71
0.065323 0.470505 0.140529 47 57 69
0.065323 0.470505 0.145569 49 59 70
0.070363 0.470505 0.145569 48 59 71
0.065323 0.465465 0.150609 47 60 72
0.070363 0.465465 0.150609 48 59 70
0.070363 0.465465 0.155649 48 60 72
0.070363 0.470505 0.150609 48 59 71
0.070363 0.470505 0.155649 48 59 71
0.055243 0.435225 0.160689 46 54 64
0.060283 0.435225 0.160689 47 56 67
0.060283 0.435225 0.165729 46 57 69
0.060283 0.440265 0.160689 46 56 66
0.060283 0.440265 0.165729 48 58 70
0.060283 0.445305 0.160689 48 58 70
0.065323 0.435225 0.165729 50 62 75
0.065323 0.440265 0.160689 50 61 73
0.065323 0.440265 0.165729 52 64 77
0.065323 0.435225 0.170769 53 67 82
0.065323 0.440265 0.170769 52 67 82
0.070363 0.435225 0.170769 55 70 85
0.070363 0.435225 0.175809 55 70 86
0.070363 0.440265 0.170769 54 69 83
0.070363 0.440265 0.175809 53 69 84
0.065323 0.445305 0.160689 50 61 74
0.065323 0.445305 0.165729 51 65 78
0.065323 0.450345 0.160689 52 66 80
0.065323 0.450345 0.165729 55 69 83
0.070363 0.445305 0.165729 53 68 83
0.070363 0.450345 0.160689 55 70 85
0.070363 0.450345 0.165729 58 74 91
0.070363 0.445305 0.170769 55 71 86
0.070363 0.445305 0.175809 54 70 87
0.070363 0.450345 0.170769 59 76 94
0.065323 0.455385 0.160689 51 65 79
0.070363 0.455385 0.160689 52 66 80
0.070363 0.455385 0.165729 55 71 86
0.070363 0.460425 0.160689 55 71 87
0.070363 0.465465 0.160689 50 64 79
0.075403 0.394905 0.195969 69 87 104
0.075403 0.399945 0.190929 62 80 99
0.075403 0.399945 0.195969 66 84 101
0.080443 0.394905 0.195969 74 91 109
0.080443 0.399945 0.195969 69 86 104
0.075403 0.404985 0.190929 61 80 98
0.075403 0.404985 0.195969 67 86 105
0.075403 0.410025 0.190929 62 78 95
0.080443 0.404985 0.190929 70 87 105
0.080443 0.404985 0.195969 70 87 105
0.080443 0.410025 0.190929 66 83 101
0.085483 0.394905 0.195969 68 86 104
0.085483 0.399945 0.195969 67 83 100
0.090523 0.394905 0.195969 69 86 103
0.090523 0.399945 0.190929 73 88 104
0.090523 0.399945 0.195969 67 84 101
0.085483 0.404985 0.190929 67 84 101
0.085483 0.404985 0.195969 66 83 100
0.085483 0.410025 0.190929 65 83 100
0.090523 0.404985 0.190929 68 85 102
0.090523 0.410025 0.190929 64 81 98
0.075403 0.415065 0.185889 61 78 96
0.075403 0.420105 0.185889 62 79 96
0.080443 0.420105 0.185889 65 82 100
0.075403 0.415065 0.190929 62 79 96
0.080443 0.415065 0.190929 66 83 101
0.080443 0.420105 0.190929 65 82 99
0.075403 0.425145 0.180849 59 77 94
0.075403 0.425145 0.185889 63 80 97
0.075403 0.430185 0.180849 61 77 94
0.075403 0.430185 0.185889 65 83 100
0.080443 0.425145 0.185889 66 84 101
0.080443 0.430185 0.180849 67 85 102
0.080443 0.430185 0.185889 69 86 103
0.085483 0.420105 0.185889 63 81 98
0.090523 0.420105 0.185889 62 79 96
0.085483 0.415065 0.190929 64 82 99
0.085483 0.420105 0.190929 61 78 95
0.090523 0.415065 0.190929 64 80 97
0.090523 0.420105 0.190929 64 79 96
0.085483 0.425145 0.185889 66 83 101
0.085483 0.430185 0.185889 66 84 102
0.090523 0.425145 0.185889 65 81 98
0.090523 0.430185 0.185889 63 81 98
0.095563 0.394905 0.195969 70 86 103
0.095563 0.399945 0.190929 72 88 104
0.095563 0.399945 0.195969 71 87 104
0.100603 0.394905 0.190929 60 76 92
0.100603 0.394905 0.195969 61 78 94
0.100603 0.399945 0.190929 63 80 96
0.100603 0.399945 0.195969 69 84 101
0.095563 0.404985 0.190929 69 85 101
0.095563 0.410025 0.190929 65 81 97
0.100603 0.404985 0.190929 63 79 96
0.100603 0.410025 0.190929 61 77 92
0.110683 0.394905 0.185889 51 64 76
0.110683 0.399945 0.185889 57 72 87
0.105643 0.394905 0.190929 55 71 86
0.105643 0.399945 0.190929 59 75 91
0.110683 0.394905 0.190929 51 66 79
0.110683 0.399945 0.190929 55 71 86
0.105643 0.404985 0.185889 58 74 90
0.105643 0.410025 0.185889 54 68 82
0.110683 0.404985 0.185889 56 71 86
0.110683 0.410025 0.185889 53 66 79
0.105643 0.404985 0.190929 61 77 93
0.105643 0.410025 0.190929 56 70 84
0.095563 0.420105 0.185889 64 80 96
0.100603 0.415065 0.185889 57 73 88
0.100603 0.420105 0.185889 59 75 91
0.095563 0.415065 0.190929 67 82 97
0.095563 0.420105 0.190929 65 81 96
0.100603 0.415065 0.190929 63 78 94
0.100603 0.420105 0.190929 63 78 94
0.095563 0.425145 0.185889 65 81 98
0.095563 0.430185 0.185889 63 80 96
0.100603 0.425145 0.185889 63 78 93
0.100603 0.430185 0.185889 64 79 95
0.105643 0.415065 0.185889 58 74 89
0.105643 0.420105 0.185889 55 71 86
0.110683 0.415065 0.185889 56 71 87
0.110683 0.420105 0.185889 54 69 84
0.105643 0.415065 0.190929 59 75 90
0.105643 0.425145 0.185889 57 71 85
0.105643 0.430185 0.185889 59 75 90
0.110683 0.425145 0.180849 56 71 85
0.110683 0.425145 0.185889 55 70 85
0.110683 0.430185 0.180849 56 72 88
0.110683 0.430185 0.185889 55 72 88
0.075403 0.465465 0.155649 51 63 76
0.075403 0.470505 0.150609 51 62 75
0.075403 0.470505 0.155649 49 62 75
0.080443 0.470505 0.155649 54 69 84
0.075403 0.435225 0.175809 57 73 90
0.075403 0.440265 0.175809 56 72 88
0.075403 0.450345 0.165729 59 76 92
0.075403 0.445305 0.170769 58 74 92
0.075403 0.445305 0.175809 59 76 93
0.075403 0.450345 0.170769 59 76 93
0.075403 0.450345 0.175809 63 80 97
0.080443 0.445305 0.175809 64 82 100
0.080443 0.450345 0.170769 61 76 93
0.080443 0.450345 0.175809 62 80 98
0.085483 0.450345 0.175809 63 80 98
0.075403 0.435225 0.180849 60 77 95
0.075403 0.440265 0.180849 60 77 94
0.080443 0.435225 0.180849 67 85 103
0.080443 0.435225 0.185889 68 87 105
0.080443 0.440265 0.180849 65 82 99
0.080443 0.445305 0.180849 65 82 100
0.080443 0.450345 0.180849 68 85 104
0.085483 0.435225 0.180849 74 91 109
0.085483 0.435225 0.185889 66 85 103
0.085483 0.440265 0.180849 65 82 100
0.085483 0.440265 0.185889 61 79 96
0.090523 0.435225 0.185889 63 82 100
0.090523 0.440265 0.180849 61 79 97
0.090523 0.440265 0.185889 62 80 97
0.085483 0.445305 0.180849 66 84 103
0.085483 0.450345 0.180849 65 83 101
0.090523 0.445305 0.180849 65 84 102
0.090523 0.445305 0.185889 66 84 102
0.090523 0.450345 0.180849 63 81 99
0.075403 0.455385 0.160689 55 72 88
0.075403 0.455385 0.165729 56 73 89
0.075403 0.460425 0.160689 55 71 87
0.075403 0.460425 0.165729 58 75 92
0.080443 0.455385 0.165729 60 78 96
0.080443 0.460425 0.165729 57 75 92
0.075403 0.455385 0.170769 54 71 88
0.080443 0.455385 0.170769 59 77 94
0.080443 0.455385 0.175809 57 75 93
0.080443 0.460425 0.170769 64 81 100
0.075403 0.465465 0.160689 50 63 77
0.075403 0.470505 0.160689 51 64 79
0.080443 0.465465 0.160689 52 67 82
0.080443 0.465465 0.165729 53 69 84
0.080443 0.470505 0.160689 52 66 81
0.085483 0.460425 0.165729 52 69 86
0.085483 0.455385 0.170769 62 81 100
0.085483 0.455385 0.175809 61 80 98
0.085483 0.460425 0.170769 59 77 95
0.085483 0.460425 0.175809 67 85 104
0.090523 0.455385 0.175809 64 82 101
0.090523 0.460425 0.170769 60 77 93
0.090523 0.460425 0.175809 63 80 98
0.085483 0.465465 0.165729 56 72 88
0.085483 0.470505 0.160689 55 72 89
0.085483 0.470505 0.165729 54 71 87
0.090523 0.465465 0.165729 54 69 85
0.090523 0.470505 0.165729 61 79 96
0.085483 0.465465 0.170769 59 75 91
0.090523 0.465465 0.170769 57 73 89
0.090523 0.465465 0.175809 61 77 94
0.090523 0.470505 0.170769 57 74 91
0.090523 0.455385 0.180849 61 79 97
0.110683 0.450345 0.175809 64 80 97
0.095563 0.435225 0.185889 63 80 97
0.095563 0.440265 0.185889 63 79 96
0.100603 0.435225 0.185889 63 78 94
0.100603 0.440265 0.185889 61 76 91
0.095563 0.445305 0.180849 67 85 102
0.095563 0.445305 0.185889 66 84 101
0.095563 0.450345 0.180849 61 78 95
0.100603 0.445305 0.180849 64 80 96
0.100603 0.445305 0.185889 64 80 97
0.100603 0.450345 0.180849 61 78 95
0.105643 0.435225 0.185889 58 74 90
0.105643 0.440265 0.180849 58 73 88
0.105643 0.440265 0.185889 57 72 87
0.110683 0.435225 0.180849 58 72 87
0.110683 0.435225 0.185889 56 72 87
0.110683 0.440265 0.180849 59 72 86
0.110683 0.440265 0.185889 56 71 86
0.105643 0.445305 0.180849 58 74 90
0.105643 0.450345 0.180849 62 79 96
0.110683 0.445305 0.180849 56 71 86
0.110683 0.450345 0.180849 62 78 94
0.095563 0.455385 0.175809 66 85 103
0.095563 0.460425 0.175809 61 79 96
0.100603 0.455385 0.175809 64 82 100
0.100603 0.460425 0.175809 56 73 89
0.095563 0.470505 0.165729 68 87 105
0.095563 0.465465 0.170769 54 71 88
0.095563 0.465465 0.175809 54 71 88
0.095563 0.470505 0.170769 61 81 99
0.095563 0.470505 0.175809 59 76 93
0.100603 0.465465 0.175809 57 74 90
0.100603 0.470505 0.170769 66 85 104
0.100603 0.470505 0.175809 63 80 98
0.105643 0.455385 0.175809 65 83 101
0.105643 0.460425 0.175809 53 71 87
0.110683 0.455385 0.175809 61 78 95
0.110683 0.460425 0.175809 52 69 85
0.105643 0.465465 0.175809 59 76 93
0.105643 0.470505 0.170769 70 89 108
0.105643 0.470505 0.175809 67 85 103
0.110683 0.465465 0.175809 56 72 88
0.110683 0.470505 0.170769 63 81 99
0.110683 0.470505 0.175809 62 80 98
0.095563 0.455385 0.180849 64 83 102
0.100603 0.455385 0.180849 66 84 101
0.105643 0.455385 0.180849 70 88 106
0.070363 0.475545 0.090129 48 58 69
0.070363 0.475545 0.095169 47 59 70
0.070363 0.480585 0.090129 49 60 71
0.070363 0.480585 0.095169 47 59 70
0.070363 0.485625 0.095169 47 59 71
0.070363 0.490665 0.095169 48 60 72
0.065323 0.475545 0.105249 47 57 69
0.065323 0.480585 0.105249 45 55 65
0.070363 0.475545 0.100209 48 60 71
0.070363 0.475545 0.105249 48 59 70
0.070363 0.480585 0.100209 48 60 71
0.070363 0.480585 0.105249 45 56 67
0.065323 0.475545 0.110289 45 55 66
0.065323 0.475545 0.115329 44 54 64
0.065323 0.480585 0.110289 45 54 64
0.065323 0.480585 0.115329 43 53 63
0.065323 0.485625 0.105249 47 56 67
0.070363 0.485625 0.100209 50 61 73
0.070363 0.485625 0.105249 47 58 69
0.070363 0.490665 0.100209 48 59 70
0.070363 0.490665 0.105249 45 55 65
0.065323 0.485625 0.110289 45 55 65
0.065323 0.485625 0.115329 47 58 69
0.065323 0.490665 0.110289 44 53 63
0.065323 0.490665 0.115329 51 60 70
0.070363 0.490665 0.110289 45 54 64
0.070363 0.490665 0.115329 50 58 68
0.070363 0.495705 0.100209 45 56 66
0.070363 0.495705 0.105249 45 54 64
0.070363 0.500745 0.100209 44 54 64
0.070363 0.500745 0.105249 44 54 63
0.070363 0.495705 0.110289 47 57 67
0.070363 0.495705 0.115329 52 61 71
0.070363 0.500745 0.110289 47 57 68
0.070363 0.500745 0.115329 52 61 71
0.070363 0.505785 0.105249 41 50 59
0.070363 0.505785 0.110289 44 52 61
0.070363 0.505785 0.115329 49 56 65
0.070363 0.530985 0.100209 36 41 46
0.070363 0.530985 0.105249 37 42 47
0.070363 0.525945 0.115329 77 82 90
0.070363 0.530985 0.110289 58 62 69
0.070363 0.530985 0.115329 96 102 111
0.065323 0.541065 0.095169 90 95 103
0.070363 0.536025 0.090129 86 92 101
0.070363 0.536025 0.095169 56 61 68
0.070363 0.541065 0.090129 92 98 109
0.070363 0.541065 0.095169 89 95 105
0.065323 0.546105 0.095169 97 103 113
0.070363 0.546105 0.090129 92 98 108
0.070363 0.546105 0.095169 94 101 112
0.070363 0.551145 0.095169 88 95 106
0.065323 0.536025 0.100209 58 63 69
0.065323 0.536025 0.105249 83 87 95
0.065323 0.541065 0.100209 87 92 101
0.065323 0.541065 0.105249 111 116 126
0.070363 0.536025 0.100209 41 45 51
0.070363 0.536025 0.105249 50 54 60
0.065323 0.536025 0.110289 105 110 120
0.065323 0.541065 0.110289 117 123 134
0.070363 0.536025 0.110289 107 112 122
0.070363 0.536025 0.115329 110 115 127
0.070363 0.541065 0.110289 108 114 126
0.070363 0.541065 0.115329 108 114 124
0.065323 0.546105 0.100209 101 107 118
0.065323 0.546105 0.105249 118 125 138
0.065323 0.551145 0.100209 99 106 117
0.065323 0.551145 0.105249 105 111 121
0.070363 0.546105 0.105249 111 117 129
0.070363 0.551145 0.100209 95 102 112
0.070363 0.551145 0.105249 107 113 124
0.070363 0.546105 0.110289 107 112 123
0.070363 0.546105 0.115329 120 128 142
0.070363 0.551145 0.110289 107 112 122
0.090523 0.475545 0.054849 46 54 62
0.090523 0.480585 0.054849 47 57 67
0.090523 0.485625 0.054849 52 65 77
0.090523 0.490665 0.054849 48 59 70
0.080443 0.475545 0.069969 46 56 66
0.080443 0.475545 0.075009 48 58 68
0.080443 0.480585 0.069969 52 64 76
0.080443 0.480585 0.075009 52 64 75
0.080443 0.485625 0.069969 51 63 76
0.080443 0.485625 0.075009 53 62 73
0.080443 0.490665 0.069969 51 61 72
0.080443 0.490665 0.075009 52 61 70
0.085483 0.475545 0.059889 45 54 63
0.085483 0.475545 0.064929 46 55 65
0.085483 0.480585 0.059889 51 63 75
0.085483 0.480585 0.064929 51 63 76
0.090523 0.475545 0.059889 45 53 62
0.090523 0.480585 0.059889 48 60 72
0.085483 0.475545 0.069969 48 58 67
0.085483 0.480585 0.069969 52 65 79
0.085483 0.485625 0.059889 49 63 76
0.085483 0.485625 0.064929 50 63 76
0.085483 0.490665 0.064929 49 60 72
0.090523 0.485625 0.059889 50 63 76
0.090523 0.490665 0.059889 48 58 69
0.090523 0.490665 0.064929 49 59 70
0.085483 0.485625 0.069969 52 65 77
0.085483 0.490665 0.069969 50 61 72
0.090523 0.495705 0.054849 46 57 68
0.090523 0.500745 0.054849 46 56 66
0.090523 0.505785 0.049809 45 54 64
0.090523 0.505785 0.054849 45 54 63
0.090523 0.510825 0.049809 46 54 63
0.090523 0.510825 0.054849 45 53 63
0.080443 0.495705 0.075009 52 60 69
0.080443 0.500745 0.075009 49 58 66
0.080443 0.505785 0.075009 46 53 61
0.080443 0.510825 0.075009 51 59 69
0.085483 0.495705 0.064929 50 61 73
0.085483 0.500745 0.064929 48 58 69
0.090523 0.495705 0.059889 48 59 70
0.090523 0.495705 0.064929 49 60 72
0.090523 0.500745 0.059889 47 57 67
0.090523 0.500745 0.064929 48 59 70
0.085483 0.495705 0.069969 49 60 71
0.085483 0.495705 0.075009 50 58 67
0.085483 0.500745 0.069969 47 56 66
0.085483 0.500745 0.075009 53 59 67
0.085483 0.505785 0.064929 48 56 66
0.085483 0.510825 0.059889 46 55 64
0.085483 0.510825 0.064929 46 55 64
0.090523 0.505785 0.059889 46 55 64
0.090523 0.505785 0.064929 47 57 67
0.090523 0.510825 0.059889 45 54 63
0.085483 0.505785 0.069969 48 56 64
0.085483 0.505785 0.075009 47 55 63
0.085483 0.510825 0.069969 48 56 64
0.085483 0.510825 0.075009 47 57 67
0.100603 0.475545 0.044769 47 55 63
0.100603 0.480585 0.044769 47 55 63
0.095563 0.475545 0.049809 47 54 62
0.095563 0.475545 0.054849 46 54 62
0.095563 0.480585 0.049809 49 56 64
0.095563 0.480585 0.054849 47 55 64
0.100603 0.475545 0.049809 47 54 62
0.100603 0.480585 0.049809 48 55 63
0.095563 0.485625 0.044769 48 58 69
0.095563 0.490665 0.044769 51 61 72
0.100603 0.485625 0.039729 46 55 65
0.100603 0.485625 0.044769 47 56 65
0.100603 0.490665 0.039729 47 56 66
0.100603 0.490665 0.044769 49 59 69
0.095563 0.485625 0.049809 49 59 69
0.095563 0.485625 0.054849 53 64 76
0.095563 0.490665 0.049809 50 61 72
0.095563 0.490665 0.054849 50 61 73
0.105643 0.475545 0.039729 46 54 62
0.105643 0.475545 0.044769 47 55 64
0.105643 0.480585 0.039729 46 54 62
0.105643 0.480585 0.044769 46 54 63
0.110683 0.475545 0.039729 46 54 62
0.110683 0.480585 0.039729 45 53 62
0.105643 0.485625 0.039729 45 54 63
0.105643 0.485625 0.044769 45 54 64
0.105643 0.490665 0.039729 45 54 64
0.095563 0.495705 0.044769 48 58 69
0.095563 0.500745 0.044769 47 57 66
0.100603 0.495705 0.039729 47 57 67
0.100603 0.495705 0.044769 48 59 69
0.100603 0.500745 0.039729 48 58 68
0.100603 0.500745 0.044769 47 57 67
0.095563 0.495705 0.049809 48 58 69
0.095563 0.495705 0.054849 47 57 68
0.095563 0.500745 0.049809 47 56 66
0.095563 0.500745 0.054849 46 56 66
0.095563 0.505785 0.044769 49 57 67
0.095563 0.510825 0.044769 64 72 80
0.100603 0.505785 0.039729 50 59 68
0.100603 0.505785 0.044769 49 57 66
0.100603 0.510825 0.039729 80 86 95
0.100603 0.510825 0.044769 77 84 93
0.095563 0.505785 0.049809 47 56 65
0.095563 0.505785 0.054849 47 55 64
0.095563 0.510825 0.049809 51 58 67
0.105643 0.495705 0.039729 45 55 64
0.105643 0.500745 0.039729 49 58 67
0.105643 0.505785 0.039729 56 63 72
0.105643 0.510825 0.039729 87 93 102
0.075403 0.475545 0.080049 51 58 67
0.075403 0.475545 0.085089 56 63 72
0.075403 0.480585 0.080049 50 58 68
0.075403 0.480585 0.085089 53 62 72
0.080443 0.475545 0.080049 53 60 69
0.080443 0.480585 0.080049 54 62 72
0.075403 0.475545 0.090129 48 57 67
0.075403 0.480585 0.090129 48 59 70
0.075403 0.485625 0.080049 50 58 68
0.075403 0.485625 0.085089 54 63 74
0.075403 0.490665 0.085089 50 60 70
0.080443 0.485625 0.080049 49 58 67
0.080443 0.490665 0.080049 49 58 68
0.080443 0.490665 0.085089 56 65 75
0.075403 0.485625 0.090129 47 58 70
0.075403 0.485625 0.095169 47 59 71
0.075403 0.490665 0.090129 46 57 68
0.075403 0.490665 0.095169 48 59 71
0.075403 0.495705 0.085089 46 56 67
0.075403 0.500745 0.085089 46 56 66
0.080443 0.495705 0.080049 53 62 72
0.080443 0.495705 0.085089 50 60 71
0.080443 0.500745 0.080049 54 63 72
0.080443 0.500745 0.085089 48 57 67
0.075403 0.495705 0.090129 46 57 68
0.075403 0.495705 0.095169 48 59 70
0.075403 0.500745 0.090129 46 56 66
0.075403 0.500745 0.095169 46 56 67
0.080443 0.500745 0.090129 47 56 66
0.080443 0.505785 0.080049 52 60 69
0.080443 0.505785 0.085089 44 53 61
0.080443 0.510825 0.080049 50 59 69
0.080443 0.510825 0.085089 45 54 63
0.075403 0.505785 0.090129 43 51 60
0.075403 0.505785 0.095169 43 51 60
0.075403 0.510825 0.090129 45 54 63
0.075403 0.510825 0.095169 45 54 63
0.080443 0.505785 0.090129 43 52 61
0.080443 0.510825 0.090129 45 54 64
0.075403 0.495705 0.100209 47 57 68
0.075403 0.500745 0.100209 45 55 65
0.075403 0.500745 0.105249 44 54 64
0.075403 0.500745 0.115329 47 57 69
0.075403 0.505785 0.100209 42 50 59
0.075403 0.505785 0.105249 43 51 60
0.075403 0.510825 0.100209 44 53 63
0.075403 0.510825 0.105249 46 56 66
0.075403 0.505785 0.110289 47 56 64
0.075403 0.505785 0.115329 48 57 67
0.075403 0.510825 0.110289 54 61 71
0.075403 0.510825 0.115329 53 62 73
0.085483 0.520905 0.054849 90 94 103
0.090523 0.515865 0.049809 76 81 90
0.090523 0.515865 0.054849 60 66 74
0.090523 0.520905 0.049809 89 95 104
0.090523 0.520905 0.054849 91 96 105
0.085483 0.530985 0.054849 80 85 94
0.090523 0.525945 0.049809 91 97 106
0.090523 0.525945 0.054849 88 93 103
0.090523 0.530985 0.049809 92 98 107
0.090523 0.530985 0.054849 88 94 103
0.080443 0.520905 0.069969 42 48 54
0.080443 0.520905 0.075009 45 50 56
0.080443 0.525945 0.069969 73 80 89
0.080443 0.525945 0.075009 44 51 59
0.080443 0.530985 0.069969 102 110 121
0.080443 0.530985 0.075009 97 104 115
0.085483 0.515865 0.059889 48 53 59
0.085483 0.515865 0.064929 45 51 58
0.085483 0.520905 0.059889 72 77 85
0.085483 0.520905 0.064929 53 58 65
0.090523 0.515865 0.059889 46 52 60
0.090523 0.515865 0.064929 44 49 56
0.090523 0.520905 0.059889 55 61 69
0.085483 0.515865 0.069969 46 52 58
0.085483 0.515865 0.075009 44 51 59
0.085483 0.520905 0.069969 45 49 55
0.085483 0.520905 0.075009 51 56 62
0.085483 0.525945 0.059889 88 95 104
0.085483 0.525945 0.064929 90 96 105
0.085483 0.530985 0.059889 84 90 99
0.085483 0.530985 0.064929 90 96 106
0.090523 0.530985 0.059889 81 87 96
0.085483 0.525945 0.069969 52 59 66
0.085483 0.536025 0.054849 82 87 96
0.090523 0.536025 0.049809 87 93 102
0.090523 0.536025 0.054849 87 93 101
0.090523 0.541065 0.049809 89 95 104
0.090523 0.541065 0.054849 91 96 106
0.090523 0.546105 0.049809 95 102 113
0.090523 0.546105 0.054849 101 108 119
0.090523 0.551145 0.054849 103 111 122
0.080443 0.536025 0.069969 97 103 113
0.080443 0.536025 0.075009 102 109 120
0.080443 0.541065 0.069969 102 108 118
0.080443 0.541065 0.075009 98 104 114
0.080443 0.546105 0.075009 96 101 111
0.080443 0.551145 0.075009 101 106 117
0.085483 0.536025 0.059889 85 92 101
0.085483 0.536025 0.064929 92 99 109
0.085483 0.541065 0.059889 90 96 106
0.085483 0.541065 0.064929 103 110 120
0.090523 0.541065 0.059889 91 97 107
