ply
format ascii 1.0
comment PCL generated
element vertex 1289
property float x
property float y
property float z
property uchar red
property uchar green
property uchar blue
element camera 0
property float view_px
property float view_py
property float view_pz
property float x_axisx
property float x_axisy
property float x_axisz
property float y_axisx
property float y_axisy
property float y_axisz
property float z_axisx
property float z_axisy
property float z_axisz
property float focal
property float scalex
property float scaley
property float centerx
property float centery
property int viewportx
property int viewporty
property float k1
property float k2
end_header
0.644659 0.534013 0.777088 111 79 47
0.655119 0.534013 0.777088 119 83 49
0.644659 0.554933 0.756168 132 98 63
0.644659 0.565393 0.756168 113 77 44
0.655119 0.554933 0.756168 124 90 57
0.655119 0.565393 0.756168 109 74 42
0.665579 0.534013 0.766628 136 96 57
0.665579 0.544473 0.756168 144 109 72
0.665579 0.544473 0.766628 143 105 65
0.676039 0.534013 0.766628 137 97 58
0.676039 0.544473 0.756168 136 101 65
0.676039 0.544473 0.766628 149 108 69
0.665579 0.554933 0.756168 116 83 52
0.665579 0.565393 0.756168 108 73 41
0.676039 0.554933 0.756168 116 81 48
0.676039 0.565393 0.756168 110 74 42
0.602819 0.492173 0.798008 109 72 38
0.613279 0.492173 0.798008 117 78 43
0.613279 0.502633 0.798008 126 84 46
0.623739 0.492173 0.798008 127 86 49
0.634199 0.492173 0.798008 122 82 46
0.634199 0.502633 0.798008 129 88 50
0.644659 0.492173 0.798008 118 80 45
0.644659 0.502633 0.798008 124 85 49
0.655119 0.492173 0.798008 122 84 49
0.655119 0.502633 0.798008 134 92 53
0.665579 0.492173 0.798008 137 94 54
0.665579 0.502633 0.798008 133 93 55
0.676039 0.492173 0.798008 132 92 54
0.602819 0.575853 0.745708 118 82 47
0.602819 0.586313 0.745708 105 71 40
0.613279 0.575853 0.745708 108 73 41
0.613279 0.586313 0.745708 105 71 40
0.602819 0.596773 0.735248 103 70 37
0.602819 0.596773 0.745708 109 74 41
0.602819 0.607233 0.745708 104 69 37
0.613279 0.596773 0.745708 109 74 41
0.613279 0.607233 0.745708 110 74 41
0.623739 0.575853 0.745708 108 73 40
0.623739 0.586313 0.745708 102 69 39
0.634199 0.575853 0.745708 112 76 43
0.634199 0.586313 0.745708 107 73 42
0.623739 0.596773 0.745708 103 69 38
0.623739 0.607233 0.745708 104 70 38
0.634199 0.596773 0.745708 101 69 38
0.634199 0.607233 0.745708 104 70 37
0.602819 0.617693 0.735248 104 70 38
0.602819 0.617693 0.745708 103 69 38
0.602819 0.628153 0.735248 99 66 35
0.602819 0.628153 0.745708 97 64 37
0.613279 0.617693 0.745708 103 70 38
0.613279 0.628153 0.735248 105 70 36
0.613279 0.628153 0.745708 103 68 36
0.602819 0.638613 0.735248 85 57 32
0.602819 0.649073 0.735248 76 52 28
0.613279 0.638613 0.735248 92 61 33
0.613279 0.638613 0.745708 94 63 34
0.613279 0.649073 0.735248 82 55 29
0.613279 0.649073 0.745708 81 54 27
0.623739 0.617693 0.745708 101 68 37
0.623739 0.628153 0.745708 106 70 37
0.634199 0.617693 0.745708 98 66 36
0.634199 0.628153 0.735248 107 70 39
0.634199 0.628153 0.745708 105 69 37
0.623739 0.638613 0.735248 84 57 30
0.623739 0.638613 0.745708 94 63 34
0.623739 0.649073 0.745708 88 58 30
0.634199 0.638613 0.745708 103 67 35
0.634199 0.649073 0.745708 99 65 35
0.644659 0.575853 0.745708 116 77 42
0.644659 0.586313 0.745708 109 74 42
0.655119 0.575853 0.745708 111 75 42
0.655119 0.586313 0.745708 111 76 44
0.644659 0.596773 0.745708 105 71 39
0.644659 0.607233 0.745708 108 72 39
0.655119 0.596773 0.745708 112 76 43
0.655119 0.607233 0.745708 112 76 42
0.665579 0.586313 0.745708 111 77 45
0.665579 0.596773 0.745708 110 76 44
0.665579 0.607233 0.745708 104 73 42
0.676039 0.596773 0.745708 110 77 45
0.676039 0.607233 0.745708 109 76 44
0.644659 0.575853 0.756168 115 78 44
0.655119 0.575853 0.756168 111 75 42
0.655119 0.586313 0.756168 117 81 47
0.655119 0.596773 0.756168 111 77 45
0.665579 0.575853 0.756168 108 74 42
0.665579 0.586313 0.756168 109 76 45
0.676039 0.575853 0.756168 110 75 42
0.676039 0.586313 0.756168 109 76 43
0.665579 0.596773 0.756168 112 78 46
0.676039 0.596773 0.756168 110 76 44
0.676039 0.607233 0.756168 112 78 46
0.644659 0.617693 0.745708 107 72 39
0.644659 0.628153 0.745708 105 69 37
0.655119 0.617693 0.745708 107 72 40
0.655119 0.628153 0.745708 104 69 38
0.644659 0.638613 0.745708 102 66 34
0.644659 0.649073 0.745708 97 64 34
0.655119 0.638613 0.745708 105 69 37
0.655119 0.649073 0.745708 102 67 36
0.665579 0.617693 0.745708 105 72 41
0.665579 0.628153 0.745708 102 69 37
0.676039 0.617693 0.745708 104 73 42
0.676039 0.628153 0.745708 103 70 38
0.665579 0.638613 0.745708 105 69 37
0.665579 0.649073 0.745708 96 64 34
0.676039 0.638613 0.745708 103 70 38
0.676039 0.649073 0.745708 98 65 34
0.843399 0.324813 0.609728 88 59 33
0.843399 0.324813 0.620188 88 57 30
0.791099 0.324813 0.703868 102 70 40
0.801559 0.324813 0.693408 119 78 44
0.801559 0.324813 0.703868 103 68 36
0.801559 0.335273 0.703868 105 71 40
0.822479 0.324813 0.662028 107 69 38
0.832939 0.324813 0.641108 100 65 36
0.843399 0.324813 0.630648 98 64 35
0.843399 0.324813 0.641108 96 62 34
0.843399 0.335273 0.630648 96 62 35
0.843399 0.335273 0.641108 96 61 33
0.832939 0.324813 0.651568 105 68 38
0.832939 0.324813 0.662028 107 70 38
0.832939 0.335273 0.651568 105 68 35
0.832939 0.335273 0.662028 105 69 37
0.843399 0.324813 0.651568 101 66 36
0.843399 0.335273 0.651568 102 67 36
0.843399 0.335273 0.662028 103 67 36
0.843399 0.345733 0.641108 94 61 33
0.843399 0.345733 0.651568 99 64 34
0.843399 0.345733 0.662028 106 69 37
0.843399 0.356193 0.662028 104 69 37
0.812019 0.324813 0.682948 87 59 33
0.822479 0.324813 0.672488 102 68 37
0.822479 0.324813 0.682948 96 64 36
0.822479 0.335273 0.672488 99 66 35
0.822479 0.335273 0.682948 94 62 33
0.812019 0.324813 0.693408 96 64 36
0.812019 0.324813 0.703868 109 72 39
0.812019 0.335273 0.693408 85 55 30
0.812019 0.335273 0.703868 81 54 30
0.822479 0.324813 0.693408 87 59 33
0.822479 0.335273 0.693408 84 55 29
0.822479 0.335273 0.703868 84 54 28
0.812019 0.345733 0.703868 93 59 30
0.822479 0.345733 0.703868 102 67 36
0.832939 0.324813 0.672488 103 70 38
0.832939 0.335273 0.672488 104 69 37
0.832939 0.335273 0.682948 98 65 35
0.832939 0.335273 0.693408 97 64 34
0.832939 0.335273 0.703868 95 60 30
0.832939 0.345733 0.672488 102 68 37
0.832939 0.345733 0.682948 103 68 37
0.832939 0.356193 0.682948 104 69 37
0.843399 0.345733 0.672488 104 68 37
0.843399 0.356193 0.672488 97 64 34
0.843399 0.356193 0.682948 102 67 37
0.832939 0.345733 0.693408 102 66 35
0.832939 0.345733 0.703868 108 70 37
0.832939 0.356193 0.693408 105 68 36
0.832939 0.356193 0.703868 111 73 40
0.843399 0.345733 0.693408 106 70 40
0.843399 0.356193 0.693408 103 67 35
0.843399 0.356193 0.703868 107 68 35
0.843399 0.366653 0.672488 96 62 33
0.843399 0.366653 0.682948 96 62 34
0.832939 0.366653 0.703868 107 72 41
0.843399 0.366653 0.693408 104 66 35
0.843399 0.366653 0.703868 111 69 37
0.843399 0.377113 0.703868 114 73 40
0.843399 0.408493 0.703868 107 72 39
0.707419 0.324813 0.745708 73 48 25
0.717879 0.324813 0.745708 76 51 27
0.686499 0.324813 0.756168 82 54 29
0.686499 0.324813 0.766628 84 57 31
0.686499 0.335273 0.766628 90 60 33
0.696959 0.324813 0.756168 76 51 27
0.696959 0.335273 0.756168 78 51 27
0.696959 0.335273 0.766628 80 53 29
0.686499 0.335273 0.777088 86 57 30
0.686499 0.345733 0.766628 86 59 32
0.696959 0.345733 0.766628 77 51 28
0.686499 0.345733 0.777088 89 60 32
0.686499 0.356193 0.777088 87 57 30
0.686499 0.356193 0.787548 87 57 29
0.696959 0.345733 0.777088 79 53 28
0.696959 0.356193 0.777088 78 52 27
0.707419 0.324813 0.756168 77 51 27
0.707419 0.335273 0.756168 74 49 26
0.707419 0.335273 0.766628 72 48 26
0.717879 0.324813 0.756168 74 49 25
0.717879 0.335273 0.756168 74 49 26
0.707419 0.345733 0.756168 80 54 29
0.707419 0.345733 0.766628 72 47 24
0.707419 0.356193 0.766628 81 53 27
0.717879 0.345733 0.756168 82 55 29
0.717879 0.345733 0.766628 80 53 28
0.717879 0.356193 0.766628 82 54 28
0.707419 0.356193 0.777088 79 52 28
0.717879 0.356193 0.777088 85 57 29
0.686499 0.366653 0.777088 88 57 29
0.686499 0.366653 0.787548 88 57 29
0.686499 0.377113 0.787548 78 51 27
0.696959 0.366653 0.777088 87 58 30
0.696959 0.366653 0.787548 88 57 28
0.696959 0.377113 0.787548 86 56 29
0.696959 0.387573 0.787548 77 51 27
0.717879 0.366653 0.766628 88 58 30
0.707419 0.366653 0.777088 85 57 30
0.707419 0.377113 0.777088 87 58 30
0.707419 0.377113 0.787548 83 55 28
0.717879 0.366653 0.777088 90 60 32
0.717879 0.377113 0.777088 92 61 32
0.717879 0.377113 0.787548 86 56 29
0.707419 0.387573 0.787548 84 55 29
0.707419 0.398033 0.787548 90 59 31
0.717879 0.387573 0.777088 87 57 29
0.717879 0.387573 0.787548 83 55 28
0.717879 0.398033 0.787548 94 61 32
0.728339 0.324813 0.745708 79 53 28
0.728339 0.335273 0.745708 78 51 26
0.738799 0.324813 0.735248 81 54 31
0.738799 0.324813 0.745708 82 55 30
0.738799 0.335273 0.745708 80 53 28
0.738799 0.345733 0.745708 87 57 30
0.749259 0.324813 0.735248 80 54 29
0.749259 0.324813 0.745708 82 56 30
0.749259 0.335273 0.735248 92 63 33
0.749259 0.335273 0.745708 86 57 30
0.759719 0.324813 0.735248 86 57 30
0.759719 0.335273 0.735248 87 59 31
0.759719 0.335273 0.745708 85 57 31
0.749259 0.345733 0.745708 88 58 31
0.759719 0.345733 0.745708 92 61 32
0.759719 0.356193 0.745708 94 63 34
0.728339 0.335273 0.756168 79 52 26
0.738799 0.335273 0.756168 84 56 29
0.728339 0.345733 0.756168 83 55 29
0.728339 0.345733 0.766628 82 54 29
0.728339 0.356193 0.756168 91 60 32
0.728339 0.356193 0.766628 84 56 29
0.738799 0.345733 0.756168 85 56 29
0.738799 0.356193 0.756168 85 56 28
0.738799 0.356193 0.766628 89 59 30
0.749259 0.345733 0.756168 87 57 29
0.749259 0.356193 0.756168 90 58 30
0.759719 0.356193 0.756168 96 63 33
0.759719 0.366653 0.745708 96 64 35
0.728339 0.366653 0.766628 88 58 30
0.738799 0.366653 0.766628 87 57 29
0.738799 0.377113 0.766628 86 57 31
0.728339 0.366653 0.777088 84 55 30
0.728339 0.377113 0.777088 87 58 30
0.738799 0.377113 0.777088 88 58 31
0.738799 0.387573 0.766628 82 55 31
0.728339 0.387573 0.777088 91 60 31
0.728339 0.387573 0.787548 92 61 31
0.728339 0.398033 0.777088 93 62 34
0.728339 0.398033 0.787548 95 64 35
0.738799 0.387573 0.777088 92 62 34
0.738799 0.398033 0.777088 87 61 34
0.749259 0.366653 0.756168 95 62 32
0.749259 0.366653 0.766628 92 60 31
0.749259 0.377113 0.756168 88 60 32
0.749259 0.377113 0.766628 89 61 33
0.759719 0.366653 0.756168 99 65 35
0.759719 0.377113 0.756168 102 68 36
0.759719 0.377113 0.766628 100 69 38
0.749259 0.387573 0.766628 106 73 40
0.749259 0.398033 0.766628 87 59 33
0.759719 0.387573 0.756168 94 63 35
0.759719 0.387573 0.766628 101 68 36
0.759719 0.398033 0.756168 78 54 30
0.759719 0.398033 0.766628 79 55 31
0.749259 0.398033 0.777088 80 54 30
0.686499 0.377113 0.798008 73 49 25
0.686499 0.387573 0.798008 75 49 26
0.686499 0.398033 0.798008 88 57 29
0.686499 0.398033 0.808468 92 59 30
0.696959 0.387573 0.798008 80 53 27
0.696959 0.398033 0.798008 88 58 29
0.707419 0.387573 0.798008 86 57 31
0.707419 0.398033 0.798008 93 61 31
0.717879 0.398033 0.798008 91 61 31
0.717879 0.408493 0.787548 112 76 42
0.717879 0.418953 0.787548 110 76 44
0.707419 0.429413 0.787548 120 85 51
0.707419 0.439873 0.787548 96 67 39
0.717879 0.429413 0.787548 106 74 42
0.717879 0.439873 0.787548 78 53 30
0.696959 0.450333 0.787548 78 53 28
0.696959 0.481713 0.787548 119 86 53
0.707419 0.450333 0.787548 81 56 31
0.717879 0.450333 0.787548 61 39 19
0.707419 0.481713 0.787548 116 84 53
0.717879 0.481713 0.787548 129 92 55
0.728339 0.408493 0.787548 97 67 38
0.728339 0.418953 0.777088 85 59 34
0.728339 0.418953 0.787548 87 61 35
0.738799 0.408493 0.777088 85 60 34
0.738799 0.418953 0.777088 80 55 31
0.738799 0.418953 0.787548 90 63 36
0.728339 0.429413 0.777088 78 54 29
0.728339 0.429413 0.787548 84 58 33
0.728339 0.439873 0.787548 62 39 19
0.738799 0.429413 0.777088 72 48 25
0.738799 0.429413 0.787548 57 36 18
0.738799 0.439873 0.787548 71 45 22
0.749259 0.408493 0.766628 80 54 29
0.749259 0.418953 0.766628 65 43 22
0.759719 0.408493 0.766628 68 46 25
0.759719 0.418953 0.766628 55 36 18
0.749259 0.408493 0.777088 79 55 31
0.749259 0.418953 0.777088 69 46 24
0.759719 0.418953 0.777088 55 36 17
0.749259 0.429413 0.777088 57 36 18
0.749259 0.429413 0.787548 63 40 19
0.749259 0.439873 0.787548 87 56 28
0.759719 0.429413 0.777088 76 49 24
0.759719 0.429413 0.787548 85 55 28
0.759719 0.439873 0.787548 98 64 34
0.738799 0.450333 0.787548 106 68 34
0.738799 0.460793 0.787548 124 83 46
0.728339 0.471253 0.787548 123 86 50
0.728339 0.481713 0.787548 130 92 55
0.738799 0.471253 0.787548 128 87 49
0.738799 0.481713 0.787548 132 91 53
0.749259 0.450333 0.787548 110 71 37
0.749259 0.460793 0.787548 119 78 42
0.759719 0.450333 0.777088 120 78 42
0.759719 0.450333 0.787548 112 75 41
0.759719 0.460793 0.777088 120 80 44
0.759719 0.460793 0.787548 112 69 36
0.749259 0.471253 0.787548 124 82 46
0.749259 0.481713 0.777088 133 91 53
0.749259 0.481713 0.787548 130 85 49
0.759719 0.471253 0.777088 123 79 44
0.759719 0.471253 0.787548 107 46 23
0.759719 0.481713 0.777088 106 74 43
0.686499 0.408493 0.808468 98 59 29
0.686499 0.418953 0.808468 111 71 38
0.696959 0.408493 0.798008 103 68 36
0.696959 0.408493 0.808468 100 65 34
0.696959 0.418953 0.798008 112 72 39
0.696959 0.418953 0.808468 114 70 37
0.686499 0.429413 0.798008 129 89 51
0.686499 0.429413 0.808468 125 87 50
0.686499 0.439873 0.798008 121 85 50
0.686499 0.439873 0.808468 111 79 48
0.696959 0.429413 0.798008 126 87 50
0.696959 0.439873 0.798008 108 76 45
0.707419 0.408493 0.798008 102 67 35
0.707419 0.418953 0.798008 116 79 44
0.717879 0.408493 0.798008 107 72 39
0.717879 0.418953 0.798008 117 80 45
0.707419 0.429413 0.798008 112 78 45
0.707419 0.439873 0.798008 103 72 42
0.717879 0.429413 0.798008 119 83 47
0.686499 0.450333 0.798008 128 88 50
0.686499 0.460793 0.798008 86 57 31
0.696959 0.450333 0.798008 106 73 42
0.696959 0.460793 0.798008 70 44 21
0.686499 0.471253 0.798008 89 58 29
0.686499 0.481713 0.798008 121 83 48
0.696959 0.471253 0.798008 103 69 37
0.696959 0.481713 0.798008 116 81 47
0.707419 0.450333 0.798008 61 39 19
0.707419 0.460793 0.798008 80 51 25
0.717879 0.450333 0.798008 69 43 20
0.717879 0.460793 0.798008 94 61 31
0.707419 0.471253 0.798008 122 84 47
0.707419 0.481713 0.798008 129 90 53
0.717879 0.471253 0.798008 115 79 45
0.717879 0.481713 0.798008 127 87 50
0.728339 0.439873 0.798008 67 41 20
0.728339 0.450333 0.798008 90 57 28
0.728339 0.460793 0.798008 112 73 39
0.738799 0.450333 0.798008 101 66 33
0.738799 0.460793 0.798008 114 75 41
0.728339 0.471253 0.798008 120 82 47
0.770179 0.324813 0.724788 94 64 35
0.780639 0.324813 0.714328 102 70 38
0.780639 0.324813 0.724788 99 67 37
0.780639 0.335273 0.724788 99 67 36
0.770179 0.324813 0.735248 91 62 33
0.770179 0.335273 0.735248 93 63 34
0.780639 0.335273 0.735248 99 66 36
0.780639 0.345733 0.724788 102 68 37
0.770179 0.345733 0.735248 99 67 36
0.770179 0.345733 0.745708 98 66 36
0.770179 0.356193 0.735248 106 72 40
0.770179 0.356193 0.745708 95 64 35
0.780639 0.345733 0.735248 94 64 35
0.780639 0.356193 0.735248 101 68 37
0.780639 0.356193 0.745708 101 67 36
0.791099 0.324813 0.714328 107 74 42
0.791099 0.335273 0.714328 98 66 36
0.791099 0.335273 0.724788 99 68 37
0.801559 0.324813 0.714328 93 63 34
0.801559 0.335273 0.714328 102 69 38
0.791099 0.345733 0.724788 101 69 38
0.791099 0.356193 0.724788 100 67 37
0.801559 0.345733 0.714328 91 61 33
0.801559 0.345733 0.724788 96 64 34
0.801559 0.356193 0.724788 69 46 24
0.791099 0.356193 0.735248 99 67 36
0.801559 0.356193 0.735248 65 43 23
0.770179 0.366653 0.745708 95 63 34
0.770179 0.377113 0.745708 94 63 33
0.780639 0.366653 0.735248 85 58 31
0.780639 0.366653 0.745708 91 61 33
0.780639 0.377113 0.745708 80 54 30
0.770179 0.387573 0.745708 84 57 33
0.780639 0.387573 0.745708 67 45 23
0.791099 0.366653 0.724788 85 57 33
0.801559 0.366653 0.724788 56 36 17
0.791099 0.366653 0.735248 72 48 26
0.791099 0.377113 0.735248 63 42 23
0.791099 0.377113 0.745708 62 40 21
0.801559 0.366653 0.735248 67 41 19
0.801559 0.377113 0.735248 90 57 28
0.801559 0.377113 0.745708 84 53 26
0.791099 0.387573 0.745708 65 42 21
0.801559 0.387573 0.745708 93 59 29
0.770179 0.366653 0.756168 99 66 36
0.770179 0.377113 0.756168 96 64 35
0.770179 0.387573 0.756168 86 58 32
0.770179 0.398033 0.756168 65 44 23
0.770179 0.398033 0.766628 49 30 15
0.780639 0.387573 0.756168 58 38 19
0.780639 0.398033 0.756168 63 40 20
0.780639 0.398033 0.766628 65 41 20
0.791099 0.387573 0.756168 76 48 24
0.791099 0.398033 0.756168 89 57 28
0.801559 0.387573 0.756168 91 58 28
0.801559 0.398033 0.756168 104 68 36
0.812019 0.335273 0.714328 91 62 36
0.812019 0.345733 0.714328 71 46 25
0.812019 0.356193 0.714328 92 61 34
0.812019 0.356193 0.724788 81 51 25
0.822479 0.345733 0.714328 103 66 34
0.822479 0.356193 0.714328 105 67 36
0.822479 0.356193 0.724788 101 65 33
0.812019 0.356193 0.735248 71 44 20
0.832939 0.356193 0.714328 111 71 37
0.812019 0.366653 0.724788 98 61 31
0.822479 0.366653 0.724788 97 62 32
0.822479 0.377113 0.724788 96 62 32
0.812019 0.366653 0.735248 91 57 28
0.812019 0.377113 0.735248 97 63 33
0.812019 0.377113 0.745708 100 65 33
0.822479 0.377113 0.735248 101 66 34
0.822479 0.387573 0.724788 107 69 35
0.812019 0.387573 0.735248 102 67 35
0.812019 0.387573 0.745708 101 67 35
0.812019 0.398033 0.735248 94 65 36
0.812019 0.398033 0.745708 102 67 35
0.822479 0.387573 0.735248 110 73 39
0.822479 0.398033 0.735248 114 77 42
0.822479 0.398033 0.745708 110 74 41
0.832939 0.366653 0.714328 107 68 36
0.832939 0.366653 0.724788 94 61 32
0.832939 0.377113 0.714328 102 66 36
0.832939 0.377113 0.724788 103 67 35
0.843399 0.366653 0.714328 110 68 36
0.843399 0.377113 0.714328 114 75 40
0.832939 0.387573 0.714328 107 69 37
0.832939 0.387573 0.724788 98 64 34
0.832939 0.398033 0.724788 97 63 33
0.843399 0.387573 0.714328 116 75 41
0.843399 0.387573 0.724788 109 71 38
0.843399 0.398033 0.714328 116 75 40
0.843399 0.398033 0.724788 110 72 38
0.832939 0.387573 0.735248 120 79 42
0.832939 0.398033 0.735248 91 59 32
0.812019 0.398033 0.756168 112 74 39
0.770179 0.408493 0.756168 57 37 19
0.770179 0.408493 0.766628 54 35 17
0.770179 0.418953 0.766628 60 38 20
0.780639 0.408493 0.766628 83 53 26
0.780639 0.418953 0.766628 94 61 31
0.770179 0.418953 0.777088 77 50 25
0.780639 0.418953 0.777088 82 55 30
0.780639 0.429413 0.766628 92 64 36
0.780639 0.439873 0.766628 105 72 40
0.770179 0.429413 0.777088 88 59 32
0.770179 0.439873 0.777088 104 69 38
0.770179 0.439873 0.787548 99 66 35
0.780639 0.429413 0.777088 89 61 33
0.780639 0.439873 0.777088 110 76 42
0.791099 0.408493 0.756168 100 65 34
0.791099 0.408493 0.766628 92 60 31
0.791099 0.418953 0.756168 102 68 35
0.791099 0.418953 0.766628 91 61 32
0.801559 0.408493 0.756168 106 71 38
0.801559 0.418953 0.756168 108 72 38
0.791099 0.429413 0.766628 103 69 38
0.791099 0.439873 0.766628 99 69 40
0.801559 0.429413 0.756168 113 76 42
0.801559 0.429413 0.766628 106 71 39
0.801559 0.439873 0.756168 105 73 41
0.801559 0.439873 0.766628 100 68 38
0.780639 0.450333 0.766628 97 68 39
0.780639 0.460793 0.766628 99 70 40
0.770179 0.450333 0.777088 119 81 45
0.770179 0.460793 0.777088 119 79 43
0.780639 0.450333 0.777088 106 73 41
0.780639 0.460793 0.777088 104 72 42
0.780639 0.471253 0.766628 88 59 32
0.780639 0.481713 0.766628 110 72 39
0.770179 0.471253 0.777088 120 83 49
0.770179 0.481713 0.777088 97 63 33
0.780639 0.471253 0.777088 100 69 40
0.780639 0.481713 0.777088 105 65 34
0.791099 0.450333 0.766628 101 71 42
0.791099 0.460793 0.766628 91 63 36
0.801559 0.450333 0.756168 85 58 32
0.801559 0.450333 0.766628 96 66 38
0.801559 0.460793 0.756168 87 58 31
0.801559 0.460793 0.766628 87 59 32
0.791099 0.471253 0.766628 102 68 37
0.791099 0.481713 0.766628 100 67 37
0.801559 0.471253 0.756168 99 67 37
0.801559 0.471253 0.766628 96 65 36
0.801559 0.481713 0.756168 121 82 46
0.801559 0.481713 0.766628 103 71 40
0.812019 0.408493 0.745708 109 71 36
0.812019 0.418953 0.745708 114 76 41
0.822479 0.408493 0.735248 104 70 39
0.822479 0.408493 0.745708 104 68 37
0.822479 0.418953 0.735248 89 59 31
0.822479 0.418953 0.745708 99 67 37
0.812019 0.429413 0.745708 102 70 40
0.812019 0.439873 0.745708 86 57 30
0.822479 0.429413 0.745708 93 62 34
0.822479 0.439873 0.745708 96 63 34
0.832939 0.408493 0.724788 103 67 35
0.832939 0.418953 0.724788 105 71 38
0.843399 0.408493 0.714328 112 73 39
0.843399 0.408493 0.724788 115 75 40
0.843399 0.418953 0.714328 112 75 41
0.843399 0.418953 0.724788 117 76 40
0.832939 0.408493 0.735248 91 59 31
0.832939 0.418953 0.735248 100 66 35
0.832939 0.439873 0.724788 116 81 46
0.843399 0.429413 0.714328 117 79 45
0.843399 0.429413 0.724788 121 80 44
0.843399 0.439873 0.724788 107 73 41
0.832939 0.429413 0.735248 112 74 39
0.832939 0.429413 0.745708 104 69 36
0.832939 0.439873 0.735248 129 86 48
0.832939 0.439873 0.745708 117 77 41
0.843399 0.429413 0.735248 128 82 43
0.843399 0.439873 0.735248 124 84 47
0.812019 0.408493 0.756168 110 72 39
0.812019 0.418953 0.756168 105 70 38
0.812019 0.429413 0.756168 113 77 43
0.812019 0.439873 0.756168 87 58 31
0.822479 0.450333 0.745708 106 70 37
0.822479 0.460793 0.745708 104 70 38
0.822479 0.471253 0.745708 106 75 45
0.822479 0.481713 0.745708 100 69 40
0.832939 0.450333 0.724788 119 82 47
0.843399 0.450333 0.724788 108 74 42
0.843399 0.460793 0.724788 97 64 34
0.832939 0.450333 0.735248 125 86 50
0.832939 0.450333 0.745708 128 84 46
0.832939 0.460793 0.735248 101 70 40
0.832939 0.460793 0.745708 108 73 42
0.843399 0.450333 0.735248 118 82 49
0.843399 0.460793 0.735248 94 62 33
0.843399 0.471253 0.724788 95 63 33
0.832939 0.471253 0.735248 89 60 33
0.832939 0.471253 0.745708 97 68 39
0.832939 0.481713 0.735248 89 59 32
0.832939 0.481713 0.745708 100 65 35
0.843399 0.471253 0.735248 91 60 32
0.843399 0.481713 0.735248 94 62 33
0.812019 0.450333 0.756168 85 57 30
0.812019 0.460793 0.756168 82 56 30
0.812019 0.460793 0.766628 92 62 35
0.822479 0.450333 0.756168 96 63 32
0.822479 0.460793 0.756168 91 62 34
0.812019 0.471253 0.756168 88 61 35
0.812019 0.471253 0.766628 87 59 34
0.812019 0.481713 0.756168 120 84 50
0.822479 0.471253 0.756168 109 74 43
0.686499 0.492173 0.787548 130 93 56
0.686499 0.502633 0.787548 132 95 58
0.696959 0.492173 0.787548 132 94 58
0.696959 0.502633 0.777088 137 98 60
0.696959 0.502633 0.787548 135 98 61
0.686499 0.513093 0.777088 132 96 60
0.686499 0.513093 0.787548 148 106 64
0.686499 0.523553 0.777088 111 79 47
0.696959 0.513093 0.777088 112 81 50
0.696959 0.513093 0.787548 134 95 58
0.696959 0.523553 0.777088 127 91 54
0.707419 0.492173 0.787548 132 94 57
0.707419 0.502633 0.777088 134 97 61
0.707419 0.502633 0.787548 139 101 62
0.717879 0.492173 0.787548 126 90 57
0.717879 0.502633 0.777088 120 88 56
0.717879 0.502633 0.787548 127 92 57
0.717879 0.523553 0.766628 147 106 67
0.707419 0.513093 0.777088 107 77 47
0.707419 0.523553 0.777088 133 96 59
0.717879 0.513093 0.777088 103 72 43
0.717879 0.523553 0.777088 131 95 58
0.686499 0.534013 0.766628 137 97 58
0.686499 0.544473 0.756168 126 90 57
0.686499 0.544473 0.766628 152 113 73
0.696959 0.534013 0.766628 145 105 65
0.696959 0.544473 0.756168 116 82 49
0.696959 0.544473 0.766628 141 106 70
0.686499 0.534013 0.777088 132 95 58
0.696959 0.534013 0.777088 135 97 59
0.686499 0.554933 0.756168 112 76 44
0.686499 0.565393 0.756168 115 78 44
0.696959 0.554933 0.756168 111 76 43
0.696959 0.565393 0.756168 125 85 48
0.707419 0.534013 0.766628 150 111 72
0.707419 0.544473 0.756168 116 81 48
0.707419 0.544473 0.766628 130 96 62
0.717879 0.534013 0.766628 142 104 67
0.717879 0.544473 0.756168 118 83 48
0.717879 0.544473 0.766628 113 80 48
0.707419 0.534013 0.777088 137 97 59
0.707419 0.554933 0.756168 114 78 44
0.707419 0.554933 0.766628 113 80 46
0.707419 0.565393 0.756168 120 82 47
0.717879 0.554933 0.756168 120 84 49
0.717879 0.565393 0.756168 118 81 47
0.728339 0.492173 0.777088 133 97 61
0.728339 0.492173 0.787548 132 94 58
0.728339 0.502633 0.777088 109 79 48
0.738799 0.492173 0.777088 123 87 52
0.738799 0.492173 0.787548 133 92 54
0.738799 0.502633 0.777088 104 72 41
0.728339 0.523553 0.766628 145 105 65
0.738799 0.523553 0.766628 142 102 62
0.728339 0.513093 0.777088 116 81 47
0.728339 0.523553 0.777088 133 95 58
0.738799 0.513093 0.777088 125 88 52
0.738799 0.523553 0.777088 131 93 54
0.749259 0.492173 0.777088 98 69 40
0.749259 0.502633 0.777088 121 84 48
0.759719 0.492173 0.777088 101 67 36
0.759719 0.502633 0.777088 128 88 50
0.749259 0.513093 0.766628 138 96 57
0.749259 0.523553 0.766628 124 90 56
0.759719 0.513093 0.766628 129 91 56
0.759719 0.523553 0.766628 100 69 40
0.749259 0.513093 0.777088 129 91 53
0.759719 0.513093 0.777088 134 94 55
0.728339 0.534013 0.766628 128 94 59
0.728339 0.544473 0.756168 111 77 44
0.728339 0.544473 0.766628 108 76 44
0.738799 0.534013 0.766628 105 74 44
0.738799 0.544473 0.756168 110 74 41
0.738799 0.544473 0.766628 101 67 37
0.728339 0.554933 0.756168 117 80 46
0.728339 0.565393 0.756168 117 79 44
0.738799 0.554933 0.756168 118 81 45
0.738799 0.565393 0.756168 116 78 43
0.749259 0.534013 0.766628 95 65 37
0.749259 0.544473 0.756168 113 76 42
0.749259 0.544473 0.766628 106 72 39
0.759719 0.534013 0.766628 98 66 35
0.759719 0.544473 0.766628 110 74 40
0.749259 0.554933 0.756168 114 76 41
0.749259 0.554933 0.766628 118 78 43
0.749259 0.565393 0.756168 110 73 39
0.749259 0.565393 0.766628 112 75 41
0.759719 0.554933 0.766628 115 78 43
0.759719 0.565393 0.756168 115 79 43
0.759719 0.565393 0.766628 111 75 42
0.686499 0.492173 0.798008 128 89 52
0.696959 0.492173 0.798008 124 89 54
0.686499 0.607233 0.745708 109 77 44
0.686499 0.575853 0.756168 111 75 42
0.686499 0.586313 0.756168 108 74 42
0.696959 0.575853 0.756168 114 76 42
0.696959 0.586313 0.756168 112 76 42
0.686499 0.596773 0.756168 114 79 45
0.686499 0.607233 0.756168 114 79 46
0.696959 0.596773 0.756168 114 78 44
0.696959 0.607233 0.756168 110 75 43
0.707419 0.575853 0.756168 114 78 44
0.707419 0.586313 0.756168 113 77 42
0.717879 0.575853 0.756168 113 76 42
0.717879 0.586313 0.756168 112 75 42
0.707419 0.596773 0.756168 111 75 41
0.707419 0.607233 0.756168 108 73 40
0.717879 0.596773 0.756168 111 74 40
0.717879 0.607233 0.756168 108 72 39
0.686499 0.617693 0.745708 106 73 41
0.686499 0.628153 0.745708 106 72 40
0.696959 0.617693 0.745708 103 70 39
0.696959 0.628153 0.745708 103 70 39
0.686499 0.638613 0.745708 105 72 40
0.686499 0.649073 0.745708 104 70 38
0.696959 0.638613 0.745708 100 67 36
0.696959 0.649073 0.745708 102 69 38
0.707419 0.617693 0.745708 104 70 39
0.707419 0.628153 0.745708 96 64 35
0.707419 0.638613 0.745708 98 65 35
0.707419 0.649073 0.745708 97 64 34
0.686499 0.617693 0.756168 109 75 43
0.696959 0.617693 0.756168 110 75 42
0.696959 0.628153 0.756168 102 68 37
0.707419 0.617693 0.756168 104 70 38
0.707419 0.628153 0.756168 96 64 34
0.717879 0.617693 0.756168 97 65 36
0.717879 0.628153 0.756168 99 67 36
0.707419 0.638613 0.756168 98 65 34
0.707419 0.649073 0.756168 106 70 38
0.717879 0.638613 0.756168 99 66 35
0.717879 0.649073 0.756168 105 68 35
0.728339 0.575853 0.756168 114 76 41
0.728339 0.586313 0.756168 113 76 42
0.738799 0.575853 0.756168 111 74 40
0.738799 0.586313 0.756168 112 75 41
0.728339 0.596773 0.756168 109 73 40
0.728339 0.607233 0.756168 106 71 38
0.738799 0.596773 0.756168 108 72 39
0.738799 0.607233 0.756168 102 67 35
0.749259 0.575853 0.756168 113 75 41
0.749259 0.586313 0.756168 113 76 41
0.759719 0.575853 0.756168 118 79 43
0.759719 0.575853 0.766628 119 82 45
0.759719 0.586313 0.756168 111 76 42
0.749259 0.596773 0.756168 107 71 38
0.749259 0.607233 0.756168 100 66 34
0.759719 0.596773 0.756168 104 70 37
0.759719 0.596773 0.766628 102 67 35
0.759719 0.607233 0.756168 101 66 34
0.728339 0.617693 0.756168 102 68 36
0.728339 0.628153 0.756168 102 68 36
0.738799 0.617693 0.756168 101 66 35
0.738799 0.628153 0.756168 105 69 36
0.728339 0.638613 0.756168 100 66 35
0.728339 0.649073 0.756168 105 67 35
0.738799 0.638613 0.756168 101 67 35
0.738799 0.649073 0.756168 99 63 33
0.749259 0.617693 0.756168 102 66 35
0.749259 0.628153 0.756168 103 68 36
0.759719 0.617693 0.756168 100 65 34
0.759719 0.617693 0.766628 104 69 37
0.759719 0.628153 0.756168 101 67 36
0.749259 0.638613 0.756168 100 66 34
0.749259 0.649073 0.756168 102 66 34
0.759719 0.638613 0.756168 102 66 35
0.759719 0.649073 0.756168 100 64 33
0.770179 0.492173 0.766628 118 80 45
0.770179 0.502633 0.766628 119 80 45
0.780639 0.492173 0.766628 116 77 42
0.780639 0.502633 0.756168 105 74 45
0.780639 0.502633 0.766628 126 82 47
0.770179 0.492173 0.777088 114 75 40
0.770179 0.502633 0.777088 124 84 47
0.780639 0.492173 0.777088 121 81 44
0.770179 0.513093 0.766628 123 86 52
0.770179 0.523553 0.766628 93 61 32
0.780639 0.513093 0.766628 98 67 39
0.780639 0.523553 0.766628 98 64 34
0.791099 0.492173 0.756168 126 90 56
0.791099 0.492173 0.766628 122 82 46
0.791099 0.502633 0.756168 93 65 37
0.791099 0.502633 0.766628 122 86 53
0.801559 0.492173 0.756168 122 86 51
0.801559 0.492173 0.766628 128 86 48
0.801559 0.502633 0.756168 90 61 34
0.791099 0.513093 0.756168 85 57 32
0.791099 0.513093 0.766628 88 59 33
0.791099 0.523553 0.756168 105 71 40
0.791099 0.523553 0.766628 101 66 36
0.801559 0.513093 0.756168 89 60 33
0.801559 0.523553 0.756168 98 65 35
0.770179 0.534013 0.766628 105 70 38
0.770179 0.544473 0.766628 114 76 42
0.780639 0.534013 0.766628 109 71 38
0.780639 0.544473 0.756168 107 70 36
0.780639 0.544473 0.766628 112 74 40
0.770179 0.554933 0.756168 106 77 48
0.770179 0.554933 0.766628 107 71 38
0.770179 0.565393 0.756168 90 62 35
0.770179 0.565393 0.766628 97 64 35
0.780639 0.554933 0.756168 113 76 43
0.780639 0.554933 0.766628 107 71 38
0.780639 0.565393 0.756168 94 64 37
0.791099 0.534013 0.756168 112 74 39
0.791099 0.534013 0.766628 108 71 38
0.791099 0.544473 0.756168 107 70 37
0.791099 0.544473 0.766628 110 72 38
0.801559 0.534013 0.756168 104 69 37
0.801559 0.544473 0.756168 104 69 38
0.791099 0.554933 0.756168 111 74 39
0.791099 0.554933 0.766628 109 73 39
0.791099 0.565393 0.756168 110 72 38
0.801559 0.554933 0.756168 109 72 39
0.801559 0.565393 0.756168 108 72 38
0.812019 0.492173 0.745708 92 61 34
0.822479 0.492173 0.745708 92 61 33
0.822479 0.502633 0.745708 82 56 30
0.822479 0.513093 0.745708 87 59 32
0.832939 0.492173 0.735248 84 55 30
0.832939 0.492173 0.745708 91 59 31
0.832939 0.502633 0.745708 93 61 32
0.843399 0.492173 0.735248 90 60 32
0.843399 0.492173 0.745708 100 64 34
0.843399 0.502633 0.735248 90 60 32
0.843399 0.502633 0.745708 99 64 33
0.832939 0.513093 0.745708 99 65 35
0.832939 0.523553 0.745708 95 63 34
0.843399 0.513093 0.745708 100 65 34
0.843399 0.523553 0.745708 102 66 34
0.812019 0.492173 0.756168 96 66 38
0.812019 0.502633 0.756168 84 57 31
0.822479 0.492173 0.756168 94 64 35
0.822479 0.502633 0.756168 82 55 31
0.812019 0.513093 0.756168 92 62 33
0.812019 0.523553 0.756168 99 65 35
0.822479 0.513093 0.756168 99 68 36
0.822479 0.523553 0.756168 104 68 35
0.832939 0.513093 0.756168 107 71 38
0.832939 0.523553 0.756168 103 70 36
0.832939 0.534013 0.745708 96 64 34
0.832939 0.544473 0.745708 99 67 36
0.843399 0.534013 0.745708 104 68 36
0.843399 0.544473 0.745708 104 69 37
0.843399 0.554933 0.745708 109 73 39
0.843399 0.565393 0.745708 109 72 38
0.812019 0.534013 0.756168 103 68 36
0.812019 0.544473 0.756168 103 69 38
0.822479 0.534013 0.756168 105 70 38
0.822479 0.544473 0.756168 106 72 40
0.812019 0.554933 0.756168 110 75 41
0.812019 0.565393 0.756168 108 72 39
0.822479 0.554933 0.756168 110 74 40
0.822479 0.565393 0.756168 103 69 37
0.832939 0.534013 0.756168 103 69 38
0.832939 0.544473 0.756168 107 72 39
0.843399 0.544473 0.756168 110 74 41
0.832939 0.554933 0.756168 110 74 41
0.832939 0.565393 0.756168 101 68 37
0.843399 0.554933 0.756168 113 77 43
0.843399 0.565393 0.756168 108 71 38
0.791099 0.596773 0.745708 15 10 5
0.770179 0.575853 0.756168 98 63 34
0.770179 0.575853 0.766628 105 70 38
0.770179 0.586313 0.756168 102 67 35
0.770179 0.586313 0.766628 104 69 37
0.780639 0.575853 0.756168 68 46 26
0.780639 0.586313 0.756168 64 42 22
0.780639 0.586313 0.766628 108 70 37
0.770179 0.596773 0.756168 104 68 36
0.770179 0.596773 0.766628 106 69 37
0.770179 0.607233 0.756168 102 66 35
0.780639 0.596773 0.756168 67 44 23
0.780639 0.596773 0.766628 103 66 35
0.780639 0.607233 0.756168 96 62 32
0.780639 0.607233 0.766628 104 67 36
0.791099 0.575853 0.756168 98 65 35
0.791099 0.586313 0.756168 76 52 28
0.801559 0.575853 0.756168 106 70 37
0.801559 0.586313 0.756168 103 67 35
0.791099 0.596773 0.756168 56 37 19
0.791099 0.607233 0.756168 78 51 27
0.801559 0.596773 0.756168 104 68 36
0.801559 0.607233 0.756168 106 72 39
0.791099 0.628153 0.745708 50 32 17
0.770179 0.617693 0.756168 100 65 34
0.770179 0.617693 0.766628 103 68 36
0.770179 0.628153 0.756168 100 66 35
0.770179 0.628153 0.766628 99 66 34
0.780639 0.617693 0.756168 111 72 38
0.780639 0.617693 0.766628 100 64 33
0.780639 0.628153 0.756168 103 66 34
0.780639 0.628153 0.766628 100 65 34
0.770179 0.638613 0.756168 100 65 34
0.770179 0.638613 0.766628 101 66 34
0.770179 0.649073 0.756168 99 63 32
0.770179 0.649073 0.766628 99 64 32
0.780639 0.638613 0.756168 108 68 36
0.780639 0.638613 0.766628 105 68 36
0.780639 0.649073 0.756168 102 66 35
0.780639 0.649073 0.766628 98 64 33
0.791099 0.617693 0.756168 85 55 30
0.791099 0.628153 0.756168 85 56 30
0.801559 0.617693 0.756168 96 65 36
0.801559 0.628153 0.756168 74 48 24
0.791099 0.638613 0.756168 78 50 26
0.791099 0.649073 0.756168 85 53 26
0.791099 0.649073 0.766628 92 58 29
0.801559 0.638613 0.756168 67 46 25
0.801559 0.649073 0.756168 45 28 14
0.843399 0.575853 0.745708 102 64 34
0.812019 0.575853 0.756168 106 69 37
0.812019 0.586313 0.756168 105 69 37
0.812019 0.586313 0.766628 107 69 37
0.822479 0.575853 0.756168 106 70 38
0.822479 0.586313 0.756168 106 70 37
0.812019 0.596773 0.756168 108 71 38
0.812019 0.607233 0.756168 106 69 37
0.822479 0.596773 0.756168 109 72 39
0.822479 0.607233 0.756168 107 70 37
0.832939 0.575853 0.756168 107 70 37
0.832939 0.586313 0.756168 111 73 39
0.843399 0.575853 0.756168 108 69 36
0.843399 0.586313 0.756168 108 70 37
0.832939 0.596773 0.756168 111 74 40
0.832939 0.607233 0.756168 106 68 36
0.843399 0.596773 0.756168 105 70 38
0.843399 0.607233 0.756168 107 69 37
0.812019 0.638613 0.745708 45 30 16
0.812019 0.649073 0.745708 42 28 13
0.812019 0.617693 0.756168 100 64 33
0.812019 0.628153 0.756168 97 61 31
0.812019 0.628153 0.766628 104 66 34
0.822479 0.617693 0.756168 101 64 33
0.822479 0.628153 0.756168 104 66 35
0.822479 0.628153 0.766628 103 66 35
0.812019 0.638613 0.756168 85 57 30
0.812019 0.638613 0.766628 97 62 32
0.812019 0.649073 0.756168 59 37 18
0.812019 0.649073 0.766628 53 30 15
0.822479 0.638613 0.756168 97 61 31
0.822479 0.638613 0.766628 96 61 30
0.822479 0.649073 0.756168 84 52 25
0.822479 0.649073 0.766628 92 59 29
0.832939 0.617693 0.756168 106 68 35
0.832939 0.628153 0.756168 101 66 34
0.843399 0.617693 0.756168 104 67 35
0.843399 0.628153 0.756168 101 64 33
0.832939 0.638613 0.756168 99 65 33
0.832939 0.649073 0.756168 97 64 33
0.832939 0.649073 0.766628 94 60 31
0.843399 0.638613 0.756168 99 63 32
0.843399 0.649073 0.756168 100 64 32
0.843399 0.649073 0.766628 92 57 29
0.519139 0.659533 0.337768 118 83 47
0.519139 0.659533 0.348228 115 80 45
0.519139 0.669993 0.348228 116 82 46
0.529599 0.659533 0.337768 118 83 46
0.529599 0.659533 0.348228 117 82 47
0.529599 0.669993 0.348228 115 80 46
0.519139 0.669993 0.358688 117 82 47
0.529599 0.669993 0.358688 116 82 47
0.529599 0.669993 0.369148 115 81 47
0.519139 0.680453 0.358688 109 76 44
0.519139 0.680453 0.369148 115 81 47
0.519139 0.690913 0.369148 116 81 47
0.529599 0.680453 0.358688 116 82 46
0.529599 0.680453 0.369148 114 81 46
0.529599 0.690913 0.369148 118 82 47
0.540059 0.659533 0.348228 116 82 46
0.550519 0.659533 0.348228 116 82 47
0.540059 0.669993 0.358688 113 79 44
0.540059 0.669993 0.369148 115 81 45
0.550519 0.659533 0.358688 122 86 48
0.550519 0.669993 0.358688 120 84 47
0.550519 0.669993 0.369148 119 83 46
0.540059 0.680453 0.358688 116 79 44
0.540059 0.680453 0.369148 114 80 45
0.540059 0.690913 0.369148 115 80 46
0.550519 0.680453 0.369148 117 82 46
0.550519 0.690913 0.369148 118 83 46
0.560979 0.659533 0.348228 123 86 49
0.560979 0.659533 0.358688 124 87 49
0.560979 0.669993 0.358688 125 87 50
0.560979 0.669993 0.369148 116 81 45
0.571439 0.659533 0.358688 120 85 47
0.571439 0.659533 0.369148 117 82 45
0.571439 0.669993 0.369148 119 83 47
0.560979 0.680453 0.369148 117 82 46
0.571439 0.680453 0.369148 121 84 47
0.581899 0.659533 0.358688 120 86 48
0.581899 0.659533 0.369148 126 88 49
0.581899 0.669993 0.369148 129 89 50
0.592359 0.659533 0.369148 126 88 50
0.592359 0.669993 0.369148 136 96 55
0.602819 0.659533 0.369148 118 82 44
0.519139 0.690913 0.379608 117 82 46
0.529599 0.690913 0.379608 120 84 47
0.540059 0.690913 0.379608 116 81 45
0.550519 0.680453 0.379608 120 84 46
0.550519 0.690913 0.379608 120 83 46
0.519139 0.701373 0.379608 118 82 46
0.519139 0.701373 0.390068 123 86 49
0.519139 0.711833 0.390068 127 91 53
0.529599 0.701373 0.379608 121 84 47
0.529599 0.701373 0.390068 126 89 50
0.529599 0.711833 0.390068 121 86 49
0.529599 0.711833 0.400528 121 86 49
0.519139 0.722293 0.390068 119 84 49
0.519139 0.722293 0.400528 120 83 47
0.519139 0.722293 0.410988 117 78 46
0.519139 0.732753 0.400528 118 78 45
0.519139 0.732753 0.410988 88 58 31
0.529599 0.722293 0.400528 119 84 48
0.529599 0.732753 0.400528 103 69 38
0.529599 0.732753 0.410988 101 69 38
0.540059 0.701373 0.379608 120 84 47
0.540059 0.701373 0.390068 119 82 46
0.540059 0.711833 0.390068 117 81 45
0.550519 0.701373 0.379608 123 85 48
0.550519 0.701373 0.390068 122 85 47
0.550519 0.711833 0.390068 118 82 45
0.540059 0.711833 0.400528 118 82 46
0.550519 0.711833 0.400528 110 76 42
0.540059 0.722293 0.400528 112 78 44
0.540059 0.732753 0.400528 101 68 37
0.540059 0.732753 0.410988 124 86 49
0.550519 0.722293 0.400528 117 80 44
0.550519 0.722293 0.410988 119 82 46
0.550519 0.732753 0.410988 118 82 46
0.519139 0.732753 0.421448 62 39 20
0.560979 0.680453 0.379608 122 85 47
0.560979 0.690913 0.379608 116 81 45
0.560979 0.690913 0.390068 118 83 46
0.571439 0.680453 0.379608 118 83 46
0.571439 0.690913 0.379608 118 81 45
0.571439 0.690913 0.390068 116 80 45
0.581899 0.669993 0.379608 124 86 48
0.592359 0.659533 0.379608 121 85 47
0.592359 0.669993 0.379608 131 91 51
0.581899 0.680453 0.379608 109 75 42
0.581899 0.680453 0.390068 103 71 39
0.581899 0.690913 0.390068 117 81 46
0.592359 0.680453 0.379608 125 88 50
0.592359 0.680453 0.390068 118 82 45
0.592359 0.690913 0.390068 119 83 46
0.581899 0.690913 0.400528 117 82 47
0.592359 0.690913 0.400528 120 84 47
0.560979 0.701373 0.379608 118 82 46
0.560979 0.701373 0.390068 117 81 45
0.560979 0.711833 0.390068 112 78 43
0.571439 0.701373 0.390068 108 74 41
0.560979 0.711833 0.400528 115 80 44
0.571439 0.701373 0.400528 114 78 43
0.571439 0.711833 0.400528 117 81 45
0.571439 0.711833 0.410988 117 81 45
0.560979 0.722293 0.400528 122 84 47
0.560979 0.722293 0.410988 120 82 46
0.560979 0.732753 0.410988 117 81 46
0.571439 0.722293 0.410988 116 80 45
0.571439 0.732753 0.410988 115 80 46
0.581899 0.701373 0.390068 120 83 46
0.581899 0.701373 0.400528 115 79 44
0.581899 0.711833 0.400528 116 81 44
0.581899 0.711833 0.410988 118 82 47
0.592359 0.701373 0.400528 117 81 46
0.592359 0.711833 0.400528 116 81 47
0.592359 0.711833 0.410988 118 82 46
0.581899 0.722293 0.410988 115 79 45
0.581899 0.732753 0.410988 115 79 45
0.592359 0.722293 0.410988 119 83 47
0.560979 0.732753 0.421448 117 81 47
0.571439 0.732753 0.421448 117 81 46
0.581899 0.732753 0.421448 113 79 45
0.592359 0.722293 0.421448 115 79 45
0.592359 0.732753 0.421448 112 78 44
0.519139 0.743213 0.410988 102 67 37
0.529599 0.743213 0.410988 114 76 43
0.540059 0.743213 0.410988 123 86 49
0.550519 0.743213 0.410988 124 87 49
0.519139 0.743213 0.421448 98 63 36
0.519139 0.753673 0.421448 101 66 36
0.529599 0.743213 0.421448 111 73 41
0.529599 0.753673 0.421448 106 70 39
0.529599 0.753673 0.431908 112 75 42
0.519139 0.764133 0.421448 106 71 39
0.519139 0.764133 0.431908 104 69 38
0.519139 0.774593 0.431908 108 72 40
0.529599 0.764133 0.431908 111 75 42
0.529599 0.774593 0.431908 113 77 43
0.519139 0.774593 0.442368 113 76 43
0.529599 0.774593 0.442368 105 71 40
0.540059 0.743213 0.421448 121 84 48
0.540059 0.753673 0.421448 120 84 47
0.540059 0.753673 0.431908 121 84 48
0.550519 0.743213 0.421448 121 84 48
0.550519 0.753673 0.421448 112 77 45
0.550519 0.753673 0.431908 113 78 45
0.540059 0.764133 0.431908 112 77 44
0.540059 0.774593 0.431908 112 77 44
0.550519 0.764133 0.431908 109 74 43
0.540059 0.774593 0.442368 105 70 40
0.550519 0.764133 0.442368 111 73 41
0.550519 0.774593 0.442368 111 75 43
0.519139 0.785053 0.442368 114 77 44
0.519139 0.795513 0.442368 114 78 44
0.519139 0.795513 0.452828 114 78 45
0.529599 0.785053 0.442368 113 79 45
0.529599 0.795513 0.442368 114 79 44
0.529599 0.795513 0.452828 114 79 46
0.519139 0.805973 0.452828 105 72 42
0.529599 0.805973 0.452828 109 74 42
0.540059 0.785053 0.442368 112 77 44
0.540059 0.785053 0.452828 111 76 44
0.540059 0.795513 0.452828 106 73 41
0.550519 0.785053 0.442368 113 78 45
0.550519 0.785053 0.452828 110 76 43
0.550519 0.795513 0.452828 107 72 41
0.540059 0.805973 0.452828 108 73 42
0.560979 0.743213 0.421448 114 78 45
0.560979 0.753673 0.421448 111 76 44
0.560979 0.753673 0.431908 113 77 44
0.571439 0.743213 0.421448 113 77 44
0.571439 0.743213 0.431908 112 77 44
0.571439 0.753673 0.431908 111 76 44
0.560979 0.764133 0.431908 110 74 42
0.571439 0.764133 0.431908 113 78 45
0.560979 0.764133 0.442368 109 73 41
0.560979 0.774593 0.442368 109 72 41
0.571439 0.764133 0.442368 110 74 42
0.571439 0.774593 0.442368 108 71 40
0.571439 0.774593 0.452828 107 72 41
0.581899 0.743213 0.421448 112 78 45
0.581899 0.743213 0.431908 113 79 46
0.581899 0.753673 0.431908 111 77 45
0.592359 0.743213 0.421448 110 76 45
0.592359 0.743213 0.431908 110 76 44
0.592359 0.753673 0.431908 110 76 44
0.581899 0.753673 0.442368 113 79 46
0.592359 0.753673 0.442368 109 75 44
0.581899 0.764133 0.442368 109 74 43
0.581899 0.774593 0.442368 107 71 41
0.581899 0.774593 0.452828 107 71 40
0.592359 0.764133 0.442368 109 75 44
0.592359 0.764133 0.452828 108 74 43
0.592359 0.774593 0.452828 107 72 42
0.560979 0.785053 0.452828 106 72 41
0.560979 0.795513 0.452828 106 70 40
0.571439 0.785053 0.452828 106 69 39
0.581899 0.785053 0.452828 102 67 38
0.592359 0.785053 0.452828 105 71 41
0.519139 0.805973 0.463288 95 65 37
0.519139 0.816433 0.463288 102 69 39
0.529599 0.805973 0.463288 109 73 43
0.529599 0.816433 0.463288 107 71 41
0.529599 0.816433 0.473748 108 71 40
0.540059 0.795513 0.463288 105 71 40
0.550519 0.795513 0.463288 107 71 41
0.540059 0.805973 0.463288 105 70 40
0.540059 0.816433 0.463288 107 71 40
0.540059 0.816433 0.473748 105 70 39
0.550519 0.805973 0.463288 108 71 41
0.550519 0.805973 0.473748 107 70 40
0.550519 0.816433 0.463288 108 72 41
0.550519 0.816433 0.473748 106 70 39
0.550519 0.816433 0.494668 103 68 37
0.560979 0.795513 0.463288 105 70 40
0.571439 0.795513 0.463288 108 71 40
0.560979 0.805973 0.463288 106 71 41
0.560979 0.805973 0.473748 109 72 41
0.560979 0.816433 0.473748 102 67 38
0.571439 0.805973 0.463288 106 71 41
0.571439 0.805973 0.473748 105 71 40
0.571439 0.816433 0.473748 102 67 37
0.571439 0.816433 0.484208 101 65 36
0.581899 0.785053 0.463288 103 67 37
0.581899 0.795513 0.463288 106 68 38
0.592359 0.785053 0.463288 106 70 40
0.592359 0.795513 0.463288 106 69 39
0.592359 0.795513 0.473748 103 68 37
0.581899 0.805973 0.473748 106 69 38
0.581899 0.816433 0.473748 104 68 38
0.592359 0.805973 0.473748 103 66 37
0.592359 0.816433 0.473748 104 68 37
0.581899 0.816433 0.484208 106 70 40
0.592359 0.816433 0.484208 106 69 38
0.602819 0.659533 0.379608 122 85 47
0.602819 0.669993 0.379608 120 84 47
0.602819 0.669993 0.390068 119 84 47
0.613279 0.659533 0.379608 119 83 46
0.613279 0.669993 0.379608 119 82 47
0.613279 0.669993 0.390068 121 84 46
0.602819 0.680453 0.379608 119 83 47
0.602819 0.680453 0.390068 118 82 46
0.602819 0.690913 0.390068 117 82 47
0.613279 0.680453 0.390068 118 82 47
0.613279 0.690913 0.390068 116 81 46
0.602819 0.690913 0.400528 119 82 47
0.613279 0.680453 0.400528 119 82 47
0.613279 0.690913 0.400528 119 82 46
0.613279 0.690913 0.410988 117 81 45
0.623739 0.659533 0.379608 117 82 45
0.623739 0.659533 0.390068 119 83 46
0.623739 0.669993 0.390068 120 84 47
0.634199 0.659533 0.379608 122 85 48
0.634199 0.659533 0.390068 118 83 46
0.634199 0.669993 0.390068 118 83 48
0.634199 0.669993 0.400528 117 83 46
0.623739 0.680453 0.390068 119 84 48
0.623739 0.680453 0.400528 118 82 46
0.623739 0.690913 0.400528 120 83 47
0.623739 0.690913 0.410988 115 80 46
0.634199 0.680453 0.400528 117 81 46
0.634199 0.690913 0.400528 116 80 46
0.634199 0.690913 0.410988 118 81 46
0.602819 0.701373 0.400528 116 80 45
0.602819 0.701373 0.410988 115 80 46
0.602819 0.711833 0.410988 114 79 45
0.613279 0.701373 0.410988 116 81 46
0.613279 0.711833 0.410988 115 80 45
0.602819 0.722293 0.410988 112 78 45
0.623739 0.701373 0.410988 117 81 46
0.623739 0.711833 0.410988 112 77 43
0.634199 0.701373 0.410988 115 79 44
0.613279 0.711833 0.421448 115 80 45
0.602819 0.722293 0.421448 115 80 46
0.602819 0.732753 0.421448 113 79 46
0.602819 0.732753 0.431908 110 75 44
0.613279 0.722293 0.421448 114 79 45
0.613279 0.722293 0.431908 114 78 45
0.613279 0.732753 0.421448 113 78 45
0.613279 0.732753 0.431908 109 75 43
0.623739 0.711833 0.421448 112 77 44
0.634199 0.701373 0.421448 114 79 45
0.634199 0.711833 0.421448 114 80 46
0.634199 0.711833 0.431908 114 80 46
0.623739 0.722293 0.421448 114 79 45
0.623739 0.722293 0.431908 113 76 43
0.623739 0.732753 0.431908 112 76 43
0.634199 0.722293 0.421448 114 80 47
0.634199 0.722293 0.431908 111 76 43
0.634199 0.732753 0.431908 109 74 41
0.623739 0.732753 0.442368 112 77 44
0.634199 0.732753 0.442368 107 73 42
0.644659 0.659533 0.390068 118 82 47
0.644659 0.669993 0.390068 117 82 46
0.644659 0.659533 0.400528 118 80 46
0.644659 0.669993 0.400528 117 81 46
0.655119 0.659533 0.400528 116 79 44
0.655119 0.669993 0.400528 115 78 44
0.655119 0.669993 0.410988 115 80 45
0.644659 0.680453 0.400528 112 78 45
0.644659 0.680453 0.410988 116 82 46
0.644659 0.690913 0.410988 117 82 46
0.655119 0.680453 0.410988 117 82 47
0.655119 0.690913 0.410988 116 81 45
0.665579 0.659533 0.400528 111 75 42
0.665579 0.659533 0.410988 114 78 43
0.665579 0.669993 0.410988 111 76 43
0.676039 0.659533 0.410988 110 75 43
0.676039 0.669993 0.410988 111 73 42
0.665579 0.680453 0.410988 118 81 46
0.644659 0.690913 0.421448 114 79 45
0.655119 0.690913 0.421448 114 79 44
0.676039 0.669993 0.421448 109 73 41
0.665579 0.680453 0.421448 115 78 44
0.665579 0.690913 0.421448 110 73 41
0.665579 0.690913 0.431908 113 79 46
0.676039 0.680453 0.421448 108 73 41
0.676039 0.680453 0.431908 106 73 41
0.676039 0.690913 0.421448 107 73 41
0.676039 0.690913 0.431908 109 75 43
0.644659 0.701373 0.421448 113 79 45
0.644659 0.711833 0.421448 115 81 46
0.644659 0.711833 0.431908 114 79 46
0.655119 0.701373 0.421448 120 83 47
0.655119 0.701373 0.431908 123 87 50
0.655119 0.711833 0.421448 119 84 48
0.655119 0.711833 0.431908 117 82 47
0.644659 0.722293 0.431908 111 77 44
0.655119 0.722293 0.431908 111 77 45
0.644659 0.722293 0.442368 109 75 43
0.644659 0.732753 0.442368 108 74 43
0.655119 0.722293 0.442368 112 79 47
0.655119 0.732753 0.442368 108 74 43
0.655119 0.732753 0.452828 106 71 41
0.665579 0.701373 0.421448 124 88 50
0.665579 0.701373 0.431908 121 86 50
0.665579 0.711833 0.431908 117 82 48
0.676039 0.701373 0.431908 114 80 46
0.665579 0.711833 0.442368 108 74 43
0.676039 0.701373 0.442368 111 77 44
0.676039 0.711833 0.442368 106 71 41
0.665579 0.722293 0.442368 109 75 43
0.665579 0.732753 0.442368 105 72 42
0.665579 0.732753 0.452828 108 73 43
0.676039 0.722293 0.442368 105 70 39
0.676039 0.722293 0.452828 109 72 41
0.676039 0.732753 0.452828 108 72 41
0.676039 0.732753 0.463288 107 71 41
0.602819 0.743213 0.431908 111 76 44
0.613279 0.743213 0.431908 109 74 43
