ply
format ascii 1.0
comment PCL generated
element vertex 1285
property float x
property float y
property float z
property uchar red
property uchar green
property uchar blue
element camera 0
property float view_px
property float view_py
property float view_pz
property float x_axisx
property float x_axisy
property float x_axisz
property float y_axisx
property float y_axisy
property float y_axisz
property float z_axisx
property float z_axisy
property float z_axisz
property float focal
property float scalex
property float scaley
property float centerx
property float centery
property int viewportx
property int viewporty
property float k1
property float k2
end_header
0.908689 0.361763 0.533038 66 43 23
0.908689 0.361763 0.537838 72 47 25
0.908689 0.366563 0.537838 76 51 28
0.913489 0.361763 0.533038 69 44 22
0.913489 0.366563 0.537838 76 50 26
0.927889 0.332963 0.547438 116 82 44
0.932689 0.332963 0.547438 217 157 94
0.932689 0.337763 0.547438 136 97 53
0.927889 0.342563 0.542638 73 48 23
0.932689 0.342563 0.547438 80 51 26
0.932689 0.347363 0.542638 75 48 23
0.932689 0.347363 0.547438 80 49 22
0.918289 0.352163 0.533038 74 48 22
0.918289 0.356963 0.533038 71 46 22
0.918289 0.356963 0.537838 76 49 24
0.923089 0.356963 0.533038 76 49 25
0.923089 0.356963 0.537838 81 53 27
0.918289 0.361763 0.533038 74 48 23
0.918289 0.361763 0.537838 82 52 27
0.918289 0.366563 0.533038 87 58 32
0.923089 0.361763 0.533038 78 51 26
0.923089 0.361763 0.537838 81 52 27
0.923089 0.366563 0.537838 90 60 33
0.927889 0.356963 0.537838 75 49 25
0.932689 0.352163 0.537838 75 50 27
0.932689 0.356963 0.537838 67 43 22
0.927889 0.361763 0.537838 70 45 23
0.927889 0.366563 0.537838 83 54 31
0.932689 0.361763 0.537838 67 44 23
0.932689 0.366563 0.537838 75 50 28
0.937489 0.337763 0.542638 227 167 101
0.942289 0.337763 0.542638 240 177 106
0.942289 0.337763 0.547438 249 185 112
0.942289 0.347363 0.537838 102 67 34
0.937489 0.342563 0.542638 161 114 64
0.937489 0.347363 0.547438 83 52 24
0.942289 0.342563 0.542638 195 142 81
0.942289 0.342563 0.547438 195 141 81
0.947089 0.347363 0.542638 93 64 36
0.937489 0.356963 0.537838 62 40 19
0.942289 0.352163 0.537838 83 51 25
0.937489 0.352163 0.542638 72 48 24
0.937489 0.356963 0.542638 71 46 24
0.942289 0.356963 0.542638 81 53 27
0.937489 0.361763 0.537838 63 41 21
0.937489 0.361763 0.542638 68 44 22
0.937489 0.366563 0.542638 64 43 21
0.937489 0.366563 0.547438 83 52 27
0.942289 0.361763 0.547438 84 56 30
0.942289 0.366563 0.547438 91 61 35
0.947089 0.352163 0.547438 111 78 44
0.947089 0.356963 0.547438 90 61 32
0.947089 0.366563 0.547438 111 75 41
0.899089 0.313763 0.552238 119 87 50
0.899089 0.318563 0.557038 72 45 23
0.903889 0.313763 0.552238 231 191 139
0.903889 0.318563 0.552238 76 48 25
0.903889 0.318563 0.557038 126 94 57
0.899089 0.313763 0.561838 193 156 107
0.899089 0.318563 0.561838 84 54 30
0.903889 0.318563 0.561838 78 50 26
0.899089 0.323363 0.561838 74 48 24
0.899089 0.323363 0.566638 87 58 32
0.899089 0.328163 0.566638 92 62 35
0.903889 0.323363 0.561838 71 45 23
0.903889 0.323363 0.566638 67 44 23
0.903889 0.328163 0.561838 84 55 29
0.903889 0.328163 0.566638 76 49 26
0.908689 0.318563 0.552238 104 76 43
0.908689 0.318563 0.557038 185 149 103
0.913489 0.318563 0.552238 181 147 106
0.913489 0.318563 0.557038 200 163 114
0.908689 0.318563 0.561838 228 187 139
0.908689 0.318563 0.566638 234 193 146
0.908689 0.323363 0.557038 90 62 33
0.913489 0.323363 0.552238 76 47 23
0.913489 0.323363 0.557038 115 84 50
0.908689 0.323363 0.561838 71 44 24
0.908689 0.328163 0.561838 69 43 23
0.908689 0.328163 0.566638 74 47 25
0.913489 0.328163 0.561838 73 45 22
0.913489 0.328163 0.566638 77 48 25
0.899089 0.328163 0.571438 97 65 37
0.903889 0.328163 0.571438 75 47 26
0.918289 0.318563 0.552238 228 187 139
0.918289 0.318563 0.557038 234 193 146
0.918289 0.323363 0.552238 165 131 84
0.918289 0.323363 0.557038 94 65 35
0.918289 0.328163 0.557038 81 53 28
0.923089 0.323363 0.552238 213 175 125
0.923089 0.323363 0.557038 245 203 158
0.923089 0.328163 0.552238 98 69 39
0.923089 0.328163 0.557038 78 51 26
0.918289 0.328163 0.561838 73 46 24
0.923089 0.328163 0.561838 75 50 28
0.927889 0.323363 0.552238 235 193 144
0.927889 0.328163 0.552238 130 99 62
0.927889 0.328163 0.557038 247 210 157
0.932689 0.328163 0.552238 226 188 136
0.932689 0.328163 0.557038 240 199 148
0.903889 0.332963 0.566638 82 53 30
0.908689 0.332963 0.566638 88 56 30
0.899089 0.332963 0.571438 92 59 32
0.899089 0.332963 0.576238 92 60 32
0.899089 0.337763 0.576238 94 62 33
0.903889 0.332963 0.571438 92 60 33
0.903889 0.337763 0.571438 92 62 34
0.903889 0.337763 0.576238 97 64 35
0.899089 0.332963 0.581038 93 60 33
0.899089 0.337763 0.581038 93 59 30
0.899089 0.337763 0.585838 94 60 32
0.903889 0.337763 0.581038 95 61 33
0.903889 0.342563 0.576238 94 61 33
0.899089 0.342563 0.585838 96 61 33
0.903889 0.342563 0.581038 91 59 32
0.903889 0.342563 0.585838 92 59 32
0.903889 0.347363 0.581038 95 63 35
0.903889 0.347363 0.585838 89 58 31
0.908689 0.332963 0.571438 87 56 31
0.908689 0.337763 0.571438 88 56 31
0.908689 0.337763 0.576238 93 64 35
0.913489 0.332963 0.571438 86 56 30
0.913489 0.337763 0.571438 88 57 31
0.913489 0.337763 0.576238 91 59 32
0.908689 0.342563 0.576238 94 63 35
0.908689 0.347363 0.576238 95 63 36
0.913489 0.342563 0.576238 90 58 31
0.908689 0.342563 0.581038 96 64 37
0.908689 0.347363 0.581038 99 66 37
0.908689 0.347363 0.585838 96 64 34
0.913489 0.347363 0.581038 85 55 30
0.908689 0.352163 0.581038 101 67 39
0.908689 0.352163 0.585838 100 66 36
0.908689 0.356963 0.581038 90 58 32
0.908689 0.356963 0.585838 96 64 35
0.913489 0.352163 0.581038 81 52 27
0.913489 0.352163 0.585838 84 56 30
0.913489 0.356963 0.585838 80 53 29
0.918289 0.332963 0.566638 81 54 29
0.918289 0.337763 0.566638 91 58 31
0.923089 0.332963 0.561838 76 51 28
0.923089 0.332963 0.566638 90 60 33
0.923089 0.337763 0.566638 90 59 33
0.927889 0.332963 0.552238 76 51 27
0.927889 0.332963 0.557038 72 49 28
0.932689 0.332963 0.552238 119 87 52
0.932689 0.337763 0.552238 86 56 30
0.927889 0.332963 0.561838 90 59 32
0.927889 0.332963 0.566638 84 56 31
0.927889 0.337763 0.561838 93 59 32
0.927889 0.337763 0.566638 96 63 34
0.932689 0.337763 0.561838 90 59 33
0.932689 0.337763 0.566638 83 54 30
0.932689 0.342563 0.561838 85 56 30
0.932689 0.342563 0.566638 76 50 27
0.932689 0.347363 0.561838 90 59 31
0.932689 0.347363 0.566638 89 58 32
0.918289 0.332963 0.571438 89 58 31
0.918289 0.337763 0.571438 91 59 32
0.918289 0.337763 0.576238 93 61 34
0.923089 0.337763 0.571438 91 59 32
0.918289 0.342563 0.571438 91 59 31
0.918289 0.342563 0.576238 89 58 31
0.918289 0.347363 0.576238 75 47 25
0.923089 0.342563 0.571438 91 59 32
0.923089 0.342563 0.576238 92 60 32
0.923089 0.347363 0.576238 89 58 32
0.918289 0.347363 0.581038 84 54 28
0.927889 0.342563 0.571438 93 61 33
0.927889 0.342563 0.576238 92 59 31
0.927889 0.347363 0.571438 93 61 32
0.927889 0.347363 0.576238 88 57 32
0.932689 0.342563 0.571438 77 51 29
0.932689 0.347363 0.571438 80 52 30
0.932689 0.347363 0.576238 92 61 34
0.927889 0.347363 0.581038 91 61 34
0.932689 0.352163 0.552238 88 54 26
0.932689 0.356963 0.557038 91 56 27
0.918289 0.352163 0.585838 76 47 24
0.918289 0.356963 0.585838 71 45 22
0.923089 0.352163 0.581038 86 56 30
0.923089 0.352163 0.585838 76 48 24
0.923089 0.356963 0.585838 71 45 22
0.932689 0.352163 0.571438 91 59 33
0.932689 0.352163 0.576238 92 59 32
0.927889 0.352163 0.581038 92 61 34
0.927889 0.352163 0.585838 86 56 28
0.927889 0.356963 0.585838 76 49 25
0.932689 0.352163 0.581038 91 59 31
0.932689 0.356963 0.581038 91 61 34
0.932689 0.356963 0.585838 80 53 28
0.927889 0.361763 0.585838 94 63 34
0.932689 0.361763 0.581038 91 61 32
0.932689 0.361763 0.585838 85 56 31
0.899089 0.342563 0.590638 95 62 32
0.899089 0.347363 0.590638 96 64 36
0.899089 0.347363 0.595438 92 60 31
0.903889 0.342563 0.590638 92 60 32
0.903889 0.347363 0.590638 91 59 32
0.908689 0.347363 0.590638 96 63 35
0.899089 0.352163 0.595438 92 59 32
0.903889 0.352163 0.590638 97 63 34
0.903889 0.352163 0.595438 95 60 32
0.899089 0.352163 0.600238 81 52 27
0.899089 0.356963 0.600238 93 60 32
0.899089 0.356963 0.605038 76 49 26
0.903889 0.356963 0.600238 94 61 33
0.903889 0.356963 0.605038 95 60 33
0.899089 0.361763 0.605038 94 61 33
0.908689 0.352163 0.590638 96 61 33
0.908689 0.356963 0.590638 95 61 33
0.908689 0.356963 0.595438 95 61 32
0.908689 0.361763 0.595438 93 61 32
0.908689 0.366563 0.595438 93 62 34
0.913489 0.361763 0.590638 85 56 29
0.913489 0.361763 0.595438 86 56 30
0.913489 0.366563 0.595438 89 59 32
0.908689 0.361763 0.600238 93 60 31
0.908689 0.361763 0.605038 93 59 32
0.908689 0.366563 0.600238 89 58 31
0.908689 0.366563 0.605038 90 58 31
0.913489 0.361763 0.600238 89 58 30
0.913489 0.366563 0.600238 92 61 33
0.913489 0.366563 0.605038 86 55 30
0.903889 0.356963 0.609838 81 50 27
0.899089 0.361763 0.609838 82 53 29
0.899089 0.361763 0.614638 94 63 35
0.903889 0.361763 0.609838 88 57 30
0.903889 0.366563 0.609838 95 61 33
0.903889 0.366563 0.614638 93 59 31
0.899089 0.366563 0.619438 84 54 27
0.899089 0.366563 0.624238 89 57 30
0.903889 0.366563 0.619438 96 63 34
0.903889 0.366563 0.624238 84 56 30
0.908689 0.361763 0.609838 95 63 34
0.908689 0.366563 0.609838 92 59 31
0.908689 0.366563 0.614638 94 61 33
0.913489 0.366563 0.609838 90 58 32
0.908689 0.366563 0.619438 94 59 32
0.918289 0.356963 0.590638 68 43 22
0.918289 0.361763 0.590638 71 45 23
0.918289 0.361763 0.595438 70 44 22
0.918289 0.366563 0.595438 69 44 22
0.923089 0.361763 0.590638 70 44 21
0.923089 0.361763 0.595438 69 43 22
0.923089 0.366563 0.595438 71 44 22
0.918289 0.366563 0.600238 69 44 24
0.923089 0.366563 0.600238 70 44 23
0.927889 0.361763 0.590638 81 52 27
0.927889 0.366563 0.595438 87 56 29
0.932689 0.361763 0.590638 79 52 30
0.932689 0.366563 0.590638 77 49 26
0.932689 0.366563 0.595438 79 49 24
0.927889 0.366563 0.600238 73 46 23
0.937489 0.328163 0.557038 245 203 154
0.937489 0.332963 0.552238 231 190 138
0.937489 0.332963 0.557038 255 219 170
0.937489 0.337763 0.552238 104 74 44
0.937489 0.337763 0.557038 131 99 62
0.942289 0.332963 0.557038 254 215 165
0.942289 0.337763 0.552238 237 189 129
0.942289 0.337763 0.557038 186 150 106
0.942289 0.337763 0.561838 253 211 159
0.937489 0.342563 0.552238 110 75 39
0.937489 0.342563 0.557038 87 57 31
0.937489 0.347363 0.552238 88 56 27
0.937489 0.347363 0.557038 95 63 33
0.942289 0.342563 0.552238 176 134 84
0.942289 0.342563 0.557038 112 78 44
0.942289 0.347363 0.552238 139 99 55
0.942289 0.347363 0.557038 131 93 53
0.937489 0.342563 0.561838 92 60 32
0.937489 0.342563 0.566638 80 53 29
0.937489 0.347363 0.561838 92 59 31
0.942289 0.342563 0.561838 155 120 80
0.942289 0.347363 0.561838 108 76 43
0.942289 0.347363 0.566638 91 60 33
0.947089 0.337763 0.552238 244 194 135
0.947089 0.337763 0.557038 232 171 102
0.947089 0.342563 0.552238 244 202 155
0.947089 0.342563 0.557038 230 168 100
0.947089 0.347363 0.557038 206 170 126
0.951889 0.342563 0.552238 253 187 115
0.951889 0.342563 0.557038 253 188 116
0.951889 0.347363 0.557038 254 188 116
0.947089 0.347363 0.561838 243 195 137
0.947089 0.347363 0.566638 255 214 164
0.951889 0.342563 0.566638 231 169 101
0.951889 0.347363 0.561838 231 168 101
0.951889 0.347363 0.566638 230 168 102
0.937489 0.347363 0.571438 88 57 31
0.947089 0.342563 0.571438 255 213 163
0.937489 0.352163 0.552238 89 54 25
0.937489 0.352163 0.557038 97 61 30
0.937489 0.356963 0.557038 98 61 29
0.942289 0.352163 0.557038 102 68 36
0.942289 0.356963 0.557038 100 65 33
0.942289 0.352163 0.561838 89 56 30
0.942289 0.352163 0.566638 96 63 33
0.942289 0.356963 0.561838 102 64 33
0.942289 0.356963 0.566638 87 54 29
0.937489 0.366563 0.552238 101 64 33
0.942289 0.361763 0.557038 96 60 28
0.942289 0.361763 0.561838 101 64 32
0.947089 0.352163 0.557038 151 107 58
0.951889 0.356963 0.557038 90 59 32
0.947089 0.352163 0.561838 166 124 77
0.947089 0.352163 0.566638 184 146 96
0.947089 0.356963 0.561838 131 90 47
0.947089 0.356963 0.566638 105 71 39
0.951889 0.352163 0.561838 242 191 133
0.951889 0.352163 0.566638 254 214 163
0.951889 0.356963 0.561838 222 162 95
0.951889 0.356963 0.566638 244 200 142
0.951889 0.361763 0.557038 90 59 31
0.951889 0.366563 0.552238 98 61 32
0.951889 0.366563 0.557038 97 61 33
0.947089 0.361763 0.566638 115 76 39
0.947089 0.366563 0.561838 101 65 33
0.947089 0.366563 0.566638 104 65 33
0.951889 0.361763 0.561838 90 59 29
0.951889 0.361763 0.566638 133 91 51
0.951889 0.366563 0.561838 92 57 29
0.951889 0.366563 0.566638 100 64 34
0.937489 0.352163 0.571438 91 60 33
0.937489 0.352163 0.576238 93 60 33
0.937489 0.356963 0.576238 91 58 30
0.942289 0.352163 0.571438 91 58 32
0.942289 0.352163 0.576238 94 61 33
0.942289 0.356963 0.576238 92 61 33
0.937489 0.352163 0.581038 91 59 33
0.937489 0.356963 0.581038 92 60 33
0.942289 0.356963 0.581038 94 61 34
0.942289 0.361763 0.576238 91 57 30
0.937489 0.361763 0.581038 95 63 34
0.937489 0.361763 0.585838 87 58 31
0.937489 0.366563 0.585838 95 62 34
0.942289 0.361763 0.581038 91 59 32
0.942289 0.361763 0.585838 93 61 33
0.942289 0.366563 0.585838 93 59 31
0.947089 0.356963 0.571438 92 59 31
0.947089 0.356963 0.576238 93 59 30
0.951889 0.356963 0.571438 92 60 31
0.947089 0.361763 0.571438 91 59 30
0.947089 0.361763 0.576238 91 58 31
0.947089 0.366563 0.576238 95 58 30
0.951889 0.361763 0.571438 156 121 78
0.951889 0.361763 0.576238 93 59 32
0.951889 0.366563 0.571438 125 84 44
0.951889 0.366563 0.576238 149 106 59
0.947089 0.361763 0.581038 93 61 33
0.947089 0.361763 0.585838 93 60 32
0.947089 0.366563 0.581038 94 59 31
0.947089 0.366563 0.585838 96 59 31
0.951889 0.361763 0.581038 94 61 33
0.951889 0.366563 0.581038 94 59 30
0.956689 0.356963 0.566638 162 124 86
0.956689 0.361763 0.557038 92 60 31
0.956689 0.361763 0.561838 228 166 97
0.956689 0.361763 0.566638 251 187 114
0.956689 0.366563 0.561838 104 68 37
0.956689 0.366563 0.566638 221 162 94
0.956689 0.361763 0.571438 249 200 141
0.956689 0.361763 0.576238 255 217 165
0.956689 0.366563 0.571438 223 176 120
0.961489 0.366563 0.571438 252 187 115
0.956689 0.366563 0.581038 193 138 82
0.937489 0.366563 0.590638 82 54 28
0.937489 0.366563 0.595438 81 51 27
0.942289 0.366563 0.590638 83 54 29
0.942289 0.366563 0.595438 82 52 28
0.947089 0.366563 0.590638 90 57 29
0.822289 0.284963 0.629038 103 69 39
0.822289 0.284963 0.633838 109 72 41
0.822289 0.289763 0.629038 107 72 41
0.822289 0.289763 0.633838 108 72 40
0.822289 0.289763 0.638638 108 72 41
0.827089 0.294563 0.629038 104 69 41
0.827089 0.299363 0.633838 105 70 41
0.822289 0.294563 0.638638 107 71 40
0.822289 0.294563 0.643438 110 72 41
0.822289 0.299363 0.643438 110 73 42
0.827089 0.294563 0.638638 106 70 40
0.827089 0.299363 0.638638 105 69 40
0.827089 0.299363 0.643438 106 71 40
0.827089 0.304163 0.638638 101 67 37
0.827089 0.304163 0.643438 106 70 39
0.831889 0.294563 0.629038 103 69 41
0.831889 0.299363 0.629038 101 68 40
0.831889 0.299363 0.633838 102 70 42
0.831889 0.304163 0.629038 102 68 38
0.831889 0.304163 0.633838 105 70 39
0.831889 0.308963 0.633838 101 67 37
0.836689 0.304163 0.629038 99 66 38
0.836689 0.308963 0.629038 96 64 36
0.836689 0.308963 0.633838 95 63 34
0.831889 0.304163 0.638638 102 68 39
0.831889 0.308963 0.638638 102 66 37
0.831889 0.308963 0.643438 104 68 38
0.836689 0.308963 0.638638 98 65 36
0.822289 0.294563 0.648238 110 73 41
0.822289 0.294563 0.653038 109 74 41
0.822289 0.299363 0.648238 108 72 39
0.822289 0.299363 0.653038 106 70 39
0.822289 0.299363 0.657838 108 71 40
0.822289 0.304163 0.653038 103 68 38
0.827089 0.304163 0.648238 106 69 38
0.827089 0.304163 0.653038 102 67 37
0.827089 0.308963 0.648238 111 75 42
0.827089 0.308963 0.653038 106 71 40
0.822289 0.304163 0.657838 108 72 40
0.822289 0.308963 0.657838 108 71 39
0.822289 0.308963 0.662638 108 70 38
0.827089 0.308963 0.657838 108 71 40
0.831889 0.308963 0.648238 109 72 39
0.836689 0.313763 0.629038 93 62 33
0.836689 0.313763 0.633838 94 62 34
0.836689 0.318563 0.629038 94 61 33
0.836689 0.318563 0.633838 98 63 35
0.831889 0.313763 0.638638 102 67 38
0.831889 0.313763 0.643438 104 68 36
0.836689 0.313763 0.638638 99 64 36
0.836689 0.313763 0.643438 99 65 37
0.836689 0.318563 0.638638 99 64 35
0.836689 0.318563 0.643438 101 66 37
0.827089 0.313763 0.653038 106 70 38
0.822289 0.313763 0.662638 107 69 37
0.827089 0.313763 0.657838 107 69 38
0.827089 0.313763 0.662638 107 69 37
0.827089 0.318563 0.657838 108 70 38
0.827089 0.318563 0.662638 107 69 37
0.831889 0.313763 0.648238 106 69 37
0.831889 0.313763 0.653038 106 69 38
0.831889 0.318563 0.648238 105 69 36
0.831889 0.318563 0.653038 105 68 38
0.836689 0.318563 0.648238 103 66 36
0.831889 0.313763 0.657838 108 70 37
0.831889 0.318563 0.657838 106 70 39
0.831889 0.318563 0.662638 107 70 38
0.831889 0.323363 0.653038 106 68 37
0.836689 0.323363 0.648238 100 64 35
0.836689 0.323363 0.653038 103 67 38
0.836689 0.328163 0.648238 100 66 36
0.836689 0.328163 0.653038 105 68 38
0.831889 0.323363 0.657838 105 69 38
0.831889 0.323363 0.662638 107 70 38
0.831889 0.328163 0.662638 109 72 40
0.836689 0.328163 0.657838 109 71 39
0.836689 0.328163 0.662638 112 73 40
0.841489 0.318563 0.629038 95 62 34
0.841489 0.318563 0.633838 96 62 33
0.841489 0.318563 0.643438 98 64 34
0.841489 0.323363 0.629038 101 65 35
0.841489 0.323363 0.633838 98 64 35
0.846289 0.323363 0.629038 97 64 35
0.846289 0.323363 0.633838 98 64 34
0.846289 0.328163 0.629038 100 65 36
0.846289 0.328163 0.633838 98 62 33
0.841489 0.323363 0.638638 96 63 35
0.841489 0.323363 0.643438 96 62 33
0.841489 0.328163 0.638638 98 63 34
0.841489 0.328163 0.643438 98 63 34
0.846289 0.328163 0.638638 96 60 33
0.851089 0.328163 0.629038 85 55 28
0.841489 0.323363 0.648238 94 61 35
0.841489 0.328163 0.648238 99 64 35
0.822289 0.313763 0.667438 107 68 37
0.822289 0.313763 0.672238 105 69 38
0.822289 0.318563 0.667438 104 67 37
0.822289 0.318563 0.672238 103 67 37
0.827089 0.318563 0.667438 106 68 37
0.822289 0.318563 0.677038 95 64 36
0.822289 0.323363 0.672238 105 69 38
0.822289 0.328163 0.667438 104 68 36
0.827089 0.323363 0.667438 106 70 38
0.827089 0.323363 0.672238 107 72 40
0.827089 0.328163 0.672238 103 69 38
0.822289 0.323363 0.677038 100 66 37
0.822289 0.328163 0.677038 98 66 37
0.822289 0.328163 0.681838 98 66 36
0.827089 0.328163 0.677038 97 64 35
0.827089 0.328163 0.681838 94 62 34
0.831889 0.323363 0.667438 108 70 36
0.831889 0.328163 0.667438 107 70 38
0.831889 0.328163 0.672238 106 71 39
0.822289 0.328163 0.691438 81 53 29
0.836689 0.332963 0.653038 104 69 37
0.836689 0.332963 0.657838 103 68 36
0.836689 0.332963 0.662638 103 68 36
0.836689 0.337763 0.657838 105 69 37
0.836689 0.337763 0.662638 103 68 36
0.846289 0.332963 0.629038 96 64 36
0.846289 0.332963 0.633838 95 61 34
0.841489 0.332963 0.638638 95 62 34
0.841489 0.332963 0.643438 98 64 35
0.846289 0.332963 0.638638 96 61 33
0.846289 0.332963 0.643438 96 62 33
0.846289 0.337763 0.643438 95 60 33
0.846289 0.342563 0.643438 94 61 33
0.851089 0.332963 0.629038 95 62 36
0.851089 0.337763 0.629038 88 56 31
0.851089 0.337763 0.633838 90 57 31
0.855889 0.332963 0.629038 84 55 29
0.855889 0.337763 0.629038 81 52 29
0.851089 0.337763 0.638638 94 59 31
0.851089 0.337763 0.643438 92 59 32
0.851089 0.342563 0.633838 82 52 28
0.855889 0.342563 0.629038 82 52 28
0.855889 0.342563 0.633838 82 53 30
0.851089 0.342563 0.638638 91 58 31
0.851089 0.342563 0.643438 91 59 32
0.851089 0.347363 0.643438 92 61 34
0.855889 0.342563 0.638638 86 54 29
0.855889 0.347363 0.638638 88 57 31
0.855889 0.347363 0.643438 90 60 34
0.841489 0.332963 0.648238 101 66 36
0.841489 0.332963 0.653038 104 68 37
0.846289 0.337763 0.648238 101 65 35
0.846289 0.337763 0.653038 101 66 36
0.841489 0.337763 0.657838 104 68 36
0.841489 0.337763 0.662638 103 68 36
0.846289 0.337763 0.657838 103 67 37
0.846289 0.342563 0.648238 98 62 35
0.846289 0.342563 0.653038 99 64 34
0.841489 0.342563 0.657838 106 70 39
0.841489 0.342563 0.662638 107 69 38
0.841489 0.347363 0.662638 106 68 37
0.846289 0.342563 0.657838 106 69 38
0.846289 0.347363 0.657838 104 66 35
0.846289 0.347363 0.662638 102 67 37
0.851089 0.342563 0.648238 91 60 34
0.851089 0.342563 0.653038 95 63 34
0.851089 0.347363 0.648238 97 65 35
0.851089 0.347363 0.653038 89 58 32
0.855889 0.347363 0.648238 85 56 32
0.851089 0.347363 0.657838 95 61 34
0.846289 0.352163 0.657838 106 69 38
0.846289 0.352163 0.662638 104 69 37
0.846289 0.356963 0.662638 109 72 40
0.851089 0.352163 0.648238 99 67 37
0.851089 0.352163 0.653038 85 56 30
0.851089 0.356963 0.653038 90 60 33
0.855889 0.352163 0.648238 95 62 36
0.855889 0.352163 0.653038 84 55 31
0.855889 0.356963 0.653038 68 44 24
0.851089 0.352163 0.657838 92 60 34
0.851089 0.356963 0.657838 94 61 34
0.851089 0.356963 0.662638 107 70 38
0.851089 0.361763 0.657838 89 58 30
0.851089 0.361763 0.662638 95 62 34
0.851089 0.366563 0.662638 85 54 31
0.855889 0.361763 0.657838 81 52 28
0.855889 0.361763 0.662638 82 52 27
0.855889 0.366563 0.662638 91 59 32
0.822289 0.332963 0.681838 97 65 36
0.827089 0.332963 0.677038 99 66 35
0.827089 0.332963 0.681838 94 61 33
0.827089 0.337763 0.681838 91 59 31
0.831889 0.332963 0.667438 105 69 37
0.831889 0.332963 0.672238 98 66 35
0.831889 0.337763 0.667438 111 74 40
0.831889 0.337763 0.672238 109 72 38
0.836689 0.337763 0.667438 108 71 38
0.831889 0.332963 0.677038 98 64 34
0.831889 0.332963 0.681838 100 66 36
0.831889 0.337763 0.677038 104 68 38
0.831889 0.337763 0.681838 104 69 37
0.836689 0.332963 0.677038 95 63 34
0.836689 0.337763 0.677038 107 70 38
0.831889 0.342563 0.672238 113 75 43
0.836689 0.342563 0.667438 106 69 37
0.836689 0.342563 0.672238 102 68 37
0.836689 0.347363 0.672238 104 69 38
0.831889 0.342563 0.677038 112 74 42
0.836689 0.342563 0.677038 102 68 37
0.836689 0.342563 0.681838 105 69 38
0.836689 0.347363 0.677038 99 65 36
0.836689 0.347363 0.681838 102 67 36
0.822289 0.332963 0.686638 90 58 31
0.822289 0.332963 0.691438 85 56 30
0.827089 0.332963 0.686638 94 62 34
0.827089 0.332963 0.691438 85 56 31
0.827089 0.337763 0.691438 90 59 31
0.822289 0.332963 0.696238 69 45 24
0.822289 0.337763 0.696238 92 60 28
0.822289 0.337763 0.701038 88 57 30
0.827089 0.332963 0.696238 114 78 42
0.827089 0.337763 0.696238 89 57 29
0.827089 0.337763 0.701038 91 59 30
0.827089 0.342563 0.696238 98 64 32
0.827089 0.342563 0.701038 91 58 28
0.831889 0.337763 0.686638 95 63 34
0.831889 0.337763 0.691438 102 68 37
0.836689 0.337763 0.691438 92 61 34
0.831889 0.337763 0.701038 95 60 31
0.836689 0.337763 0.696238 95 63 35
0.831889 0.342563 0.686638 103 69 37
0.831889 0.342563 0.691438 99 64 34
0.836689 0.342563 0.686638 107 71 39
0.836689 0.342563 0.691438 109 72 38
0.836689 0.347363 0.686638 100 65 36
0.836689 0.347363 0.691438 103 66 35
0.831889 0.342563 0.696238 98 62 33
0.831889 0.342563 0.701038 107 70 38
0.831889 0.347363 0.701038 107 69 35
0.836689 0.347363 0.696238 110 72 39
0.836689 0.347363 0.701038 110 72 39
0.836689 0.352163 0.677038 101 68 37
0.836689 0.352163 0.681838 103 69 38
0.836689 0.352163 0.686638 105 69 38
0.836689 0.352163 0.691438 106 69 37
0.836689 0.356963 0.686638 102 66 34
0.836689 0.356963 0.691438 105 67 35
0.836689 0.352163 0.696238 106 69 37
0.836689 0.352163 0.701038 110 72 39
0.836689 0.356963 0.696238 104 68 36
0.836689 0.356963 0.701038 108 71 38
0.841489 0.342563 0.667438 105 68 37
0.841489 0.347363 0.667438 108 70 38
0.841489 0.347363 0.672238 105 68 36
0.841489 0.347363 0.677038 104 68 38
0.841489 0.352163 0.667438 105 70 38
0.841489 0.352163 0.672238 103 67 37
0.846289 0.352163 0.667438 102 67 36
0.846289 0.352163 0.672238 103 67 36
0.846289 0.356963 0.667438 103 68 35
0.846289 0.356963 0.672238 99 65 35
0.841489 0.352163 0.677038 102 67 37
0.841489 0.352163 0.681838 101 68 37
0.841489 0.356963 0.677038 101 67 37
0.841489 0.356963 0.681838 103 67 37
0.846289 0.356963 0.677038 97 64 36
0.846289 0.361763 0.667438 106 70 39
0.846289 0.361763 0.672238 93 61 32
0.841489 0.361763 0.681838 104 67 36
0.846289 0.361763 0.677038 88 58 31
0.846289 0.361763 0.681838 98 63 36
0.846289 0.366563 0.681838 96 63 33
0.851089 0.356963 0.667438 109 72 39
0.851089 0.361763 0.667438 96 63 34
0.851089 0.366563 0.667438 93 61 33
0.851089 0.366563 0.672238 91 59 31
0.851089 0.366563 0.677038 84 54 27
0.851089 0.366563 0.681838 86 56 30
0.841489 0.352163 0.686638 112 77 44
0.841489 0.356963 0.686638 100 66 36
0.841489 0.356963 0.696238 105 67 36
0.841489 0.356963 0.701038 109 70 37
0.841489 0.361763 0.691438 100 65 35
0.846289 0.361763 0.686638 98 63 34
0.846289 0.366563 0.686638 98 63 33
0.846289 0.366563 0.691438 101 64 34
0.841489 0.361763 0.701038 107 68 36
0.841489 0.366563 0.701038 110 70 37
0.846289 0.361763 0.696238 104 66 35
0.846289 0.361763 0.701038 107 68 36
0.846289 0.366563 0.696238 110 69 37
0.846289 0.366563 0.701038 111 71 39
0.851089 0.366563 0.691438 101 65 33
0.851089 0.366563 0.696238 104 67 36
0.860689 0.342563 0.629038 79 52 30
0.865489 0.342563 0.629038 78 52 30
0.865489 0.347363 0.629038 90 58 32
0.865489 0.347363 0.633838 93 60 34
0.865489 0.347363 0.638638 90 57 32
0.865489 0.347363 0.643438 88 56 29
0.870289 0.347363 0.629038 88 56 30
0.875089 0.347363 0.629038 85 55 29
0.860689 0.347363 0.648238 75 48 26
0.865489 0.352163 0.638638 95 60 33
0.865489 0.352163 0.643438 93 60 34
0.875089 0.352163 0.629038 91 59 32
0.875089 0.352163 0.633838 93 60 32
0.870289 0.352163 0.638638 94 60 33
0.870289 0.352163 0.643438 94 60 33
0.875089 0.352163 0.638638 95 60 32
0.875089 0.356963 0.638638 95 61 32
0.875089 0.356963 0.643438 95 62 35
0.860689 0.352163 0.648238 56 37 19
0.860689 0.352163 0.653038 54 34 18
0.860689 0.356963 0.653038 66 42 21
0.865489 0.352163 0.648238 80 51 26
0.865489 0.352163 0.653038 80 51 25
0.865489 0.356963 0.653038 90 57 28
0.860689 0.356963 0.657838 57 38 18
0.865489 0.356963 0.657838 57 38 18
0.860689 0.361763 0.657838 63 40 21
0.860689 0.361763 0.662638 58 38 19
0.860689 0.366563 0.657838 75 47 23
0.860689 0.366563 0.662638 74 47 25
0.865489 0.361763 0.657838 69 45 22
0.865489 0.366563 0.662638 65 42 22
0.870289 0.352163 0.653038 83 52 27
0.870289 0.356963 0.648238 83 53 27
0.870289 0.356963 0.653038 85 54 28
0.875089 0.356963 0.648238 93 60 32
0.875089 0.356963 0.653038 92 59 32
0.870289 0.352163 0.657838 90 58 29
0.870289 0.356963 0.657838 98 62 33
0.875089 0.356963 0.657838 97 64 35
0.875089 0.361763 0.648238 92 59 30
0.870289 0.361763 0.657838 93 60 32
0.870289 0.361763 0.662638 93 60 31
0.870289 0.366563 0.662638 86 56 29
0.875089 0.361763 0.657838 95 60 33
0.875089 0.366563 0.662638 96 61 33
0.879889 0.352163 0.629038 95 63 35
0.879889 0.356963 0.629038 95 63 34
0.879889 0.356963 0.633838 95 62 34
0.884689 0.356963 0.629038 94 59 31
0.884689 0.356963 0.633838 99 66 36
0.879889 0.356963 0.638638 93 59 31
0.879889 0.361763 0.633838 94 61 33
0.884689 0.361763 0.629038 83 53 27
0.884689 0.361763 0.633838 94 62 33
0.879889 0.361763 0.638638 90 59 31
0.879889 0.361763 0.643438 91 58 31
0.884689 0.361763 0.638638 91 57 30
0.884689 0.361763 0.643438 93 60 33
0.884689 0.366563 0.638638 91 60 34
0.884689 0.366563 0.643438 92 62 34
0.889489 0.361763 0.629038 101 66 39
0.889489 0.361763 0.633838 95 62 34
0.889489 0.366563 0.629038 92 59 30
0.889489 0.366563 0.633838 90 60 33
0.894289 0.361763 0.629038 98 65 37
0.894289 0.366563 0.629038 94 61 32
0.894289 0.366563 0.633838 96 63 34
0.889489 0.366563 0.638638 93 61 34
0.889489 0.366563 0.643438 93 63 35
0.894289 0.366563 0.638638 90 59 30
0.879889 0.361763 0.648238 93 59 32
0.879889 0.361763 0.653038 94 60 31
0.884689 0.366563 0.648238 91 57 30
0.884689 0.366563 0.653038 94 59 30
0.879889 0.366563 0.657838 96 61 32
0.879889 0.366563 0.662638 94 60 32
0.884689 0.366563 0.657838 88 55 27
0.884689 0.366563 0.662638 98 60 32
0.889489 0.366563 0.648238 93 62 34
0.889489 0.366563 0.653038 93 60 31
0.870289 0.366563 0.667438 89 59 31
0.822289 0.342563 0.705838 99 64 34
0.822289 0.342563 0.710638 100 66 36
0.822289 0.347363 0.710638 102 66 34
0.827089 0.342563 0.705838 103 67 35
0.827089 0.347363 0.705838 109 73 42
0.827089 0.347363 0.710638 113 75 43
0.822289 0.347363 0.715438 105 67 35
0.831889 0.347363 0.705838 112 73 39
0.827089 0.352163 0.705838 113 76 43
0.827089 0.352163 0.710638 112 72 38
0.822289 0.352163 0.715438 105 68 36
0.822289 0.352163 0.720238 106 71 38
0.822289 0.356963 0.720238 102 67 35
0.827089 0.352163 0.715438 111 72 39
0.827089 0.356963 0.715438 110 71 38
0.827089 0.356963 0.720238 111 72 38
0.827089 0.366563 0.710638 108 69 37
0.822289 0.361763 0.720238 101 65 32
0.827089 0.361763 0.715438 114 73 39
0.827089 0.361763 0.720238 109 70 37
0.827089 0.366563 0.720238 98 62 31
0.831889 0.352163 0.705838 111 73 39
0.831889 0.352163 0.710638 111 73 40
0.831889 0.356963 0.705838 114 76 40
0.831889 0.356963 0.710638 110 70 36
0.836689 0.352163 0.705838 106 68 36
0.836689 0.356963 0.705838 114 75 42
0.836689 0.356963 0.710638 116 75 38
0.831889 0.356963 0.715438 109 69 35
0.831889 0.361763 0.710638 112 73 40
0.831889 0.366563 0.710638 124 79 42
0.836689 0.361763 0.705838 109 71 39
0.836689 0.361763 0.710638 113 75 43
0.836689 0.366563 0.710638 106 68 37
0.831889 0.361763 0.715438 112 70 38
0.831889 0.366563 0.715438 106 66 34
0.822289 0.361763 0.725038 98 63 32
0.822289 0.366563 0.725038 95 61 32
0.841489 0.361763 0.705838 109 68 35
0.841489 0.366563 0.705838 112 69 36
0.841489 0.366563 0.710638 113 70 37
0.846289 0.366563 0.705838 112 69 36
0.899089 0.366563 0.629038 85 54 28
0.903889 0.366563 0.629038 96 63 35
0.668689 0.371363 0.086638 52 34 15
0.668689 0.376163 0.081838 55 33 16
0.673489 0.371363 0.086638 54 35 17
0.673489 0.376163 0.086638 52 33 16
0.668689 0.380963 0.081838 57 37 17
0.668689 0.380963 0.086638 54 34 18
0.668689 0.385763 0.081838 67 44 22
0.673489 0.380963 0.081838 58 37 19
0.673489 0.380963 0.086638 79 52 28
0.673489 0.385763 0.081838 71 47 24
0.673489 0.385763 0.086638 86 59 32
0.678289 0.371363 0.086638 48 31 14
0.678289 0.385763 0.086638 97 66 37
0.668689 0.390563 0.086638 98 67 36
0.668689 0.395363 0.086638 127 93 62
0.673489 0.390563 0.086638 103 72 39
0.678289 0.390563 0.086638 124 99 78
0.678289 0.395363 0.086638 127 100 74
0.673489 0.371363 0.091438 59 39 17
0.678289 0.371363 0.091438 62 40 19
0.678289 0.376163 0.091438 74 48 23
0.683089 0.371363 0.096238 71 46 22
0.683089 0.376163 0.091438 79 53 28
0.678289 0.380963 0.091438 88 59 30
0.678289 0.385763 0.091438 113 78 43
0.678289 0.385763 0.096238 133 92 51
0.683089 0.380963 0.091438 93 63 32
0.683089 0.380963 0.096238 114 78 42
0.683089 0.385763 0.091438 137 104 74
0.683089 0.385763 0.096238 124 87 48
0.683089 0.385763 0.101038 124 87 48
0.683089 0.385763 0.115438 143 101 61
0.668689 0.395363 0.091438 128 91 51
0.668689 0.395363 0.096238 147 107 66
0.673489 0.390563 0.091438 133 95 55
0.673489 0.390563 0.096238 152 109 66
0.673489 0.395363 0.091438 143 106 68
0.673489 0.395363 0.096238 148 106 63
0.673489 0.395363 0.101038 153 109 65
0.673489 0.395363 0.105838 154 111 67
0.668689 0.400163 0.096238 141 101 58
0.668689 0.400163 0.101038 141 101 59
0.668689 0.400163 0.105838 143 102 59
0.673489 0.400163 0.105838 142 101 60
0.678289 0.390563 0.091438 131 96 62
0.678289 0.390563 0.096238 137 97 54
0.678289 0.395363 0.096238 142 101 57
0.683089 0.390563 0.091438 134 104 75
0.678289 0.390563 0.101038 139 97 54
0.678289 0.390563 0.105838 138 97 55
0.678289 0.395363 0.101038 141 100 56
0.678289 0.395363 0.105838 149 108 64
0.683089 0.390563 0.101038 135 94 53
0.683089 0.390563 0.105838 147 104 63
0.673489 0.395363 0.110638 160 115 71
0.668689 0.400163 0.110638 141 101 58
0.668689 0.400163 0.115438 144 102 61
0.668689 0.404963 0.110638 148 105 60
0.668689 0.404963 0.115438 148 106 63
0.673489 0.400163 0.110638 159 113 68
0.673489 0.400163 0.115438 161 115 69
0.668689 0.404963 0.120238 142 101 61
0.668689 0.404963 0.125038 148 106 64
0.673489 0.400163 0.120238 157 113 68
0.673489 0.400163 0.125038 155 110 65
0.673489 0.404963 0.120238 151 108 65
0.673489 0.404963 0.125038 150 107 65
0.678289 0.395363 0.110638 159 114 69
0.678289 0.395363 0.115438 152 110 68
0.683089 0.390563 0.110638 153 110 66
0.683089 0.390563 0.115438 149 107 64
0.683089 0.395363 0.110638 156 113 69
0.683089 0.395363 0.115438 152 110 67
0.678289 0.395363 0.120238 153 109 67
0.678289 0.395363 0.125038 154 110 64
0.683089 0.390563 0.120238 151 107 65
0.683089 0.395363 0.120238 157 111 66
0.683089 0.395363 0.125038 157 112 66
0.678289 0.400163 0.110638 150 109 64
0.678289 0.400163 0.115438 156 112 69
0.678289 0.400163 0.120238 154 111 67
0.678289 0.400163 0.125038 157 112 67
0.687889 0.371363 0.091438 64 40 17
0.687889 0.371363 0.096238 76 49 24
0.687889 0.376163 0.096238 90 60 31
0.692689 0.371363 0.096238 91 62 34
0.692689 0.376163 0.096238 140 104 72
0.692689 0.371363 0.101038 101 68 39
0.692689 0.376163 0.101038 126 89 55
0.692689 0.376163 0.105838 131 91 54
0.687889 0.380963 0.091438 125 99 75
0.687889 0.380963 0.096238 118 84 51
0.692689 0.380963 0.096238 124 86 53
0.687889 0.380963 0.101038 133 93 56
0.687889 0.385763 0.101038 135 96 57
0.687889 0.385763 0.105838 144 102 61
0.692689 0.380963 0.101038 128 90 52
0.692689 0.380963 0.105838 137 96 57
0.692689 0.385763 0.105838 142 100 60
0.697489 0.376163 0.096238 89 59 32
0.697489 0.371363 0.101038 107 75 45
0.697489 0.371363 0.105838 118 82 47
0.697489 0.376163 0.101038 117 83 50
0.697489 0.376163 0.105838 132 92 55
0.702289 0.371363 0.101038 85 57 28
0.702289 0.371363 0.105838 111 77 43
0.697489 0.380963 0.105838 137 96 57
0.692689 0.376163 0.110638 138 96 58
0.687889 0.385763 0.110638 142 101 60
0.687889 0.385763 0.115438 138 97 57
0.692689 0.380963 0.110638 138 97 57
0.692689 0.380963 0.115438 136 97 56
0.692689 0.385763 0.110638 139 98 58
0.692689 0.385763 0.115438 136 96 56
0.687889 0.385763 0.120238 137 96 56
0.687889 0.385763 0.125038 147 104 62
0.692689 0.380963 0.120238 136 96 56
0.692689 0.380963 0.125038 138 98 57
0.692689 0.385763 0.120238 135 96 57
0.692689 0.385763 0.125038 142 100 59
0.697489 0.371363 0.110638 127 88 52
0.697489 0.376163 0.110638 138 97 58
0.697489 0.376163 0.115438 140 99 60
0.702289 0.371363 0.110638 131 91 54
0.702289 0.371363 0.115438 132 92 54
0.702289 0.376163 0.115438 139 97 58
0.697489 0.376163 0.120238 141 99 58
0.697489 0.376163 0.125038 140 98 57
0.702289 0.376163 0.120238 138 97 57
0.702289 0.376163 0.125038 136 95 56
0.697489 0.380963 0.115438 138 97 57
0.697489 0.380963 0.120238 138 98 57
0.697489 0.380963 0.125038 138 98 58
0.687889 0.390563 0.105838 147 104 63
0.687889 0.390563 0.110638 146 104 62
0.687889 0.390563 0.115438 141 100 60
0.687889 0.390563 0.120238 140 100 59
0.687889 0.390563 0.125038 147 104 62
0.687889 0.395363 0.125038 157 111 66
0.668689 0.404963 0.129838 152 108 66
0.673489 0.400163 0.129838 154 111 66
0.673489 0.404963 0.129838 154 111 67
0.673489 0.404963 0.134638 153 109 64
0.673489 0.404963 0.139438 148 104 61
0.673489 0.404963 0.144238 149 105 62
0.683089 0.390563 0.134638 145 104 61
0.683089 0.395363 0.129838 153 108 63
0.683089 0.395363 0.134638 148 106 63
0.683089 0.395363 0.139438 139 99 60
0.683089 0.395363 0.144238 140 99 59
0.678289 0.400163 0.129838 153 109 65
0.678289 0.404963 0.134638 149 107 62
0.683089 0.400163 0.129838 154 110 65
0.683089 0.400163 0.134638 151 107 64
0.683089 0.404963 0.134638 150 106 63
0.678289 0.404963 0.139438 146 104 61
0.678289 0.404963 0.144238 146 103 59
0.683089 0.400163 0.139438 142 101 60
0.683089 0.400163 0.144238 139 100 59
0.683089 0.404963 0.139438 145 103 61
0.683089 0.404963 0.144238 142 100 59
0.673489 0.404963 0.163438 134 96 58
0.683089 0.395363 0.149038 140 100 60
0.683089 0.395363 0.163438 139 100 60
0.678289 0.404963 0.149038 144 101 60
0.678289 0.404963 0.153838 138 97 57
0.683089 0.400163 0.149038 142 101 59
0.683089 0.400163 0.153838 143 102 60
0.683089 0.404963 0.149038 142 100 58
0.683089 0.404963 0.153838 138 97 59
0.678289 0.404963 0.158638 135 96 56
0.678289 0.404963 0.163438 138 98 58
0.683089 0.400163 0.158638 139 99 59
0.683089 0.400163 0.163438 142 101 60
0.683089 0.404963 0.158638 141 100 59
0.683089 0.404963 0.163438 142 102 60
0.692689 0.385763 0.129838 146 104 60
0.692689 0.385763 0.134638 143 102 60
0.692689 0.380963 0.139438 137 96 57
0.692689 0.380963 0.144238 136 96 57
0.692689 0.385763 0.139438 142 101 58
0.692689 0.385763 0.144238 141 99 58
0.702289 0.376163 0.129838 136 95 55
0.702289 0.376163 0.134638 133 93 54
0.697489 0.376163 0.144238 131 93 56
0.702289 0.371363 0.139438 135 95 56
0.702289 0.371363 0.144238 135 96 57
0.702289 0.376163 0.139438 131 92 55
0.702289 0.376163 0.144238 134 94 56
0.697489 0.380963 0.129838 139 98 58
0.697489 0.380963 0.134638 137 97 57
0.697489 0.385763 0.129838 144 102 62
0.697489 0.385763 0.134638 142 101 60
0.702289 0.380963 0.129838 137 95 56
0.702289 0.380963 0.134638 134 94 54
0.697489 0.380963 0.139438 132 93 55
0.697489 0.380963 0.144238 134 94 56
0.702289 0.380963 0.139438 133 93 56
0.692689 0.376163 0.149038 134 94 55
0.692689 0.380963 0.149038 136 96 56
0.692689 0.380963 0.153838 137 97 55
0.692689 0.385763 0.149038 140 98 56
0.692689 0.385763 0.153838 135 96 55
0.692689 0.385763 0.158638 132 93 55
0.692689 0.385763 0.163438 133 92 54
0.697489 0.376163 0.149038 134 95 55
0.697489 0.376163 0.153838 132 93 54
0.702289 0.376163 0.149038 135 96 55
0.702289 0.376163 0.153838 132 93 54
0.702289 0.376163 0.163438 130 92 55
0.697489 0.380963 0.149038 139 97 58
0.697489 0.380963 0.153838 132 93 54
0.697489 0.385763 0.153838 133 94 54
0.702289 0.380963 0.149038 133 95 55
0.702289 0.380963 0.153838 129 91 52
0.697489 0.380963 0.158638 128 90 53
0.697489 0.380963 0.163438 130 91 54
0.697489 0.385763 0.158638 130 92 53
0.697489 0.385763 0.163438 134 94 55
0.702289 0.380963 0.158638 128 90 53
0.702289 0.380963 0.163438 126 89 54
0.687889 0.390563 0.129838 151 107 64
0.687889 0.390563 0.134638 147 104 60
0.687889 0.395363 0.129838 154 109 63
0.687889 0.395363 0.134638 142 102 61
0.692689 0.390563 0.129838 150 106 61
0.692689 0.390563 0.134638 146 103 60
0.692689 0.395363 0.134638 150 107 63
0.687889 0.390563 0.139438 140 99 58
0.687889 0.390563 0.144238 134 96 55
0.687889 0.395363 0.139438 140 100 60
0.687889 0.395363 0.144238 138 97 57
0.692689 0.390563 0.139438 143 101 59
0.692689 0.390563 0.144238 138 97 56
0.692689 0.395363 0.139438 138 97 57
0.687889 0.400163 0.134638 146 104 62
0.687889 0.400163 0.139438 143 103 62
0.687889 0.404963 0.139438 146 104 61
0.692689 0.404963 0.139438 146 104 63
0.687889 0.390563 0.153838 136 96 56
0.687889 0.395363 0.149038 137 97 58
0.687889 0.395363 0.153838 138 98 58
0.692689 0.390563 0.149038 137 97 56
0.692689 0.390563 0.153838 139 98 58
0.687889 0.390563 0.158638 135 95 55
0.687889 0.390563 0.163438 137 98 58
0.687889 0.395363 0.158638 137 98 58
0.687889 0.395363 0.163438 136 97 58
0.692689 0.390563 0.158638 136 96 56
0.692689 0.390563 0.163438 136 97 57
0.687889 0.400163 0.149038 143 102 60
0.687889 0.400163 0.158638 137 98 59
0.697489 0.390563 0.149038 139 98 56
0.697489 0.390563 0.163438 137 96 56
0.668689 0.409763 0.120238 143 102 61
0.668689 0.409763 0.125038 151 108 65
0.668689 0.409763 0.129838 154 109 66
0.668689 0.409763 0.134638 153 108 65
0.668689 0.414563 0.129838 151 107 66
0.668689 0.414563 0.134638 150 106 64
0.673489 0.409763 0.129838 156 111 67
0.673489 0.409763 0.134638 154 109 65
0.668689 0.409763 0.139438 149 106 62
0.668689 0.409763 0.144238 150 107 63
0.668689 0.414563 0.139438 148 106 63
0.668689 0.414563 0.144238 148 106 63
0.673489 0.409763 0.139438 148 105 62
0.673489 0.409763 0.144238 150 106 62
0.668689 0.414563 0.149038 146 104 62
0.668689 0.414563 0.153838 147 104 62
0.673489 0.409763 0.149038 149 106 62
0.673489 0.409763 0.153838 144 102 60
0.673489 0.414563 0.153838 146 104 61
0.668689 0.414563 0.163438 145 103 62
0.673489 0.409763 0.158638 141 100 59
0.673489 0.409763 0.163438 141 100 60
0.673489 0.414563 0.158638 144 102 61
0.673489 0.414563 0.163438 145 103 61
0.668689 0.419363 0.149038 145 104 63
0.668689 0.419363 0.153838 144 101 62
0.668689 0.419363 0.158638 144 103 62
0.668689 0.419363 0.163438 146 104 62
0.668689 0.424163 0.158638 150 106 65
0.668689 0.424163 0.163438 150 107 65
0.678289 0.409763 0.149038 147 104 61
0.678289 0.409763 0.153838 145 103 60
0.678289 0.409763 0.158638 135 96 57
0.678289 0.409763 0.163438 131 94 56
0.707089 0.371363 0.096238 80 53 26
0.707089 0.376163 0.096238 82 54 26
0.707089 0.371363 0.115438 116 80 46
0.707089 0.371363 0.120238 131 90 52
0.707089 0.371363 0.125038 131 91 53
0.707089 0.376163 0.120238 139 97 58
0.707089 0.376163 0.125038 137 95 56
0.711889 0.371363 0.125038 123 86 49
0.711889 0.376163 0.125038 134 93 54
0.707089 0.371363 0.129838 132 91 53
0.707089 0.371363 0.134638 128 89 52
0.707089 0.376163 0.129838 136 94 54
0.707089 0.376163 0.134638 132 92 54
0.711889 0.371363 0.134638 126 88 51
0.707089 0.371363 0.139438 133 93 54
0.707089 0.371363 0.144238 133 93 55
0.711889 0.371363 0.139438 134 93 53
0.707089 0.371363 0.149038 135 95 56
0.707089 0.371363 0.153838 133 93 55
0.707089 0.376163 0.149038 138 98 57
0.707089 0.376163 0.153838 134 95 55
0.707089 0.371363 0.158638 133 94 55
0.707089 0.371363 0.163438 132 94 55
0.707089 0.376163 0.158638 131 93 54
0.707089 0.376163 0.163438 133 94 56
0.673489 0.404963 0.168238 137 99 60
0.683089 0.395363 0.168238 134 96 59
0.683089 0.395363 0.173038 136 97 59
0.678289 0.404963 0.168238 142 102 61
0.678289 0.404963 0.173038 144 102 61
0.683089 0.400163 0.168238 136 97 59
0.683089 0.400163 0.173038 134 96 58
0.683089 0.404963 0.173038 140 100 61
0.678289 0.404963 0.182638 134 95 57
0.683089 0.400163 0.177838 137 98 58
0.683089 0.400163 0.182638 137 97 59
0.683089 0.404963 0.177838 134 95 58
0.683089 0.404963 0.182638 132 93 56
0.683089 0.400163 0.187438 127 91 55
0.683089 0.404963 0.187438 131 92 55
0.683089 0.404963 0.192238 127 89 52
0.692689 0.385763 0.168238 137 95 56
0.692689 0.385763 0.173038 136 95 56
0.697489 0.376163 0.168238 131 93 57
0.697489 0.376163 0.173038 129 92 55
0.702289 0.371363 0.173038 127 91 55
0.702289 0.376163 0.168238 132 94 56
0.702289 0.376163 0.173038 127 91 54
0.702289 0.376163 0.177838 128 91 55
0.702289 0.376163 0.182638 129 91 55
0.697489 0.380963 0.168238 129 92 54
0.697489 0.380963 0.173038 126 90 54
0.697489 0.385763 0.168238 135 95 55
0.697489 0.385763 0.173038 131 93 55
0.697489 0.380963 0.177838 127 91 55
0.697489 0.380963 0.182638 122 86 52
0.697489 0.385763 0.177838 131 93 55
0.697489 0.385763 0.182638 126 90 53
0.702289 0.380963 0.177838 125 89 53
0.702289 0.380963 0.182638 122 86 52
0.702289 0.385763 0.177838 128 91 54
0.702289 0.385763 0.182638 126 89 53
0.692689 0.385763 0.187438 127 90 54
0.692689 0.385763 0.192238 121 86 52
0.702289 0.376163 0.187438 126 90 54
0.702289 0.376163 0.192238 126 90 51
0.697489 0.380963 0.187438 125 88 53
0.697489 0.385763 0.187438 126 90 53
0.697489 0.385763 0.192238 119 85 51
0.702289 0.380963 0.187438 125 89 52
0.702289 0.380963 0.192238 127 89 53
0.702289 0.385763 0.192238 119 85 49
0.697489 0.385763 0.197038 115 82 49
0.702289 0.380963 0.197038 125 89 53
0.702289 0.380963 0.201838 120 86 49
0.702289 0.385763 0.197038 120 85 49
0.702289 0.385763 0.201838 118 83 48
0.687889 0.390563 0.168238 136 97 57
0.687889 0.390563 0.173038 138 98 58
0.687889 0.395363 0.168238 134 95 57
0.687889 0.395363 0.173038 137 98 58
0.692689 0.390563 0.168238 137 96 57
0.692689 0.390563 0.173038 139 98 58
0.692689 0.395363 0.173038 137 98 59
0.687889 0.390563 0.177838 139 99 59
0.687889 0.395363 0.177838 138 98 59
0.687889 0.395363 0.182638 136 97 58
0.692689 0.390563 0.177838 136 97 58
0.692689 0.390563 0.182638 131 93 55
0.692689 0.395363 0.177838 139 99 59
0.692689 0.395363 0.182638 135 96 58
0.687889 0.400163 0.177838 139 99 60
0.687889 0.400163 0.182638 138 99 59
0.687889 0.404963 0.177838 137 99 60
0.697489 0.390563 0.182638 127 91 54
0.687889 0.395363 0.187438 129 92 55
0.692689 0.390563 0.187438 129 92 55
0.692689 0.390563 0.192238 124 88 53
0.692689 0.395363 0.187438 130 92 55
0.692689 0.395363 0.192238 124 87 52
0.692689 0.390563 0.197038 120 84 50
0.692689 0.395363 0.197038 122 85 48
0.687889 0.400163 0.187438 124 89 54
0.687889 0.400163 0.192238 118 85 52
0.687889 0.404963 0.187438 129 91 54
0.687889 0.404963 0.192238 122 86 51
0.692689 0.400163 0.192238 123 87 53
0.687889 0.400163 0.197038 119 84 50
0.687889 0.404963 0.197038 120 85 50
0.692689 0.400163 0.197038 122 86 51
0.692689 0.404963 0.197038 120 84 50
0.692689 0.404963 0.201838 119 83 49
0.697489 0.390563 0.192238 123 86 51
0.697489 0.390563 0.197038 118 83 49
0.697489 0.390563 0.201838 118 82 47
0.697489 0.395363 0.197038 122 84 49
0.697489 0.395363 0.201838 121 84 47
0.702289 0.390563 0.201838 117 81 47
0.697489 0.400163 0.197038 125 87 50
0.697489 0.400163 0.201838 120 84 48
0.697489 0.404963 0.201838 121 85 49
0.702289 0.376163 0.206638 116 81 46
0.702289 0.380963 0.206638 120 85 48
0.702289 0.385763 0.206638 115 80 46
0.692689 0.404963 0.206638 120 84 49
0.692689 0.404963 0.211438 118 81 47
0.697489 0.395363 0.206638 115 80 44
0.702289 0.390563 0.206638 114 79 45
0.702289 0.390563 0.211438 114 79 45
0.702289 0.395363 0.206638 115 79 45
0.702289 0.395363 0.211438 116 79 44
0.702289 0.390563 0.216238 112 77 42
0.702289 0.395363 0.216238 114 78 44
0.702289 0.395363 0.221038 112 76 42
0.697489 0.400163 0.206638 113 78 44
0.697489 0.400163 0.211438 110 76 43
0.697489 0.404963 0.206638 117 82 47
0.697489 0.404963 0.211438 113 79 45
0.702289 0.400163 0.211438 111 77 43
0.697489 0.400163 0.216238 110 76 44
0.697489 0.404963 0.216238 110 76 43
0.702289 0.400163 0.216238 115 78 44
0.702289 0.400163 0.221038 115 79 44
0.702289 0.404963 0.216238 113 77 42
0.702289 0.404963 0.221038 114 78 43
0.702289 0.400163 0.225838 114 79 46
0.702289 0.404963 0.225838 113 79 45
0.668689 0.414563 0.168238 152 109 65
0.668689 0.414563 0.173038 147 105 63
0.673489 0.409763 0.168238 144 102 61
0.673489 0.409763 0.173038 142 101 60
0.673489 0.414563 0.168238 148 106 63
0.673489 0.414563 0.173038 144 103 62
0.673489 0.409763 0.177838 136 97 59
0.673489 0.414563 0.177838 141 101 62
0.668689 0.419363 0.168238 147 105 63
0.668689 0.419363 0.173038 151 108 64
0.668689 0.424163 0.168238 147 105 64
0.668689 0.424163 0.173038 147 104 63
0.673489 0.419363 0.173038 146 104 63
0.668689 0.419363 0.177838 145 104 63
0.668689 0.424163 0.177838 142 101 62
0.668689 0.424163 0.182638 138 99 59
0.673489 0.419363 0.182638 137 98 60
0.673489 0.424163 0.177838 142 102 63
0.673489 0.424163 0.182638 135 96 58
0.678289 0.409763 0.168238 143 101 61
0.678289 0.409763 0.173038 144 101 59
0.678289 0.409763 0.177838 137 98 58
0.678289 0.414563 0.177838 135 95 57
0.678289 0.414563 0.182638 132 93 57
0.683089 0.409763 0.177838 139 99 59
0.683089 0.409763 0.182638 136 97 58
0.678289 0.419363 0.177838 139 98 60
0.678289 0.419363 0.182638 134 95 57
0.673489 0.419363 0.187438 132 93 57
0.673489 0.424163 0.187438 129 91 52
0.678289 0.414563 0.187438 131 91 53
0.683089 0.409763 0.187438 132 93 56
0.683089 0.409763 0.192238 123 86 52
0.683089 0.414563 0.187438 132 93 56
0.683089 0.414563 0.192238 125 88 53
0.683089 0.414563 0.197038 121 85 50
0.683089 0.414563 0.201838 122 86 51
0.678289 0.419363 0.187438 132 92 55
0.678289 0.419363 0.192238 129 91 54
0.678289 0.424163 0.192238 128 90 53
0.678289 0.419363 0.197038 128 91 53
0.678289 0.424163 0.197038 128 90 53
0.678289 0.424163 0.201838 124 87 51
0.683089 0.419363 0.197038 122 87 51
0.683089 0.419363 0.201838 126 88 52
0.683089 0.424163 0.201838 126 88 53
0.668689 0.428963 0.177838 136 99 58
0.668689 0.428963 0.182638 132 95 54
0.668689 0.428963 0.187438 129 92 53
0.668689 0.428963 0.192238 126 90 52
0.668689 0.433763 0.192238 128 92 53
0.673489 0.428963 0.187438 130 93 53
0.673489 0.428963 0.192238 131 93 54
0.668689 0.433763 0.197038 131 93 53
0.673489 0.428963 0.197038 130 92 53
0.673489 0.433763 0.201838 124 87 49
0.668689 0.438563 0.197038 129 92 52
0.668689 0.443363 0.201838 129 91 53
0.673489 0.438563 0.201838 122 86 50
0.678289 0.428963 0.197038 124 86 49
0.678289 0.428963 0.201838 120 84 48
0.687889 0.409763 0.192238 126 88 52
0.687889 0.414563 0.192238 124 87 53
0.687889 0.409763 0.197038 123 86 50
