ply
format ascii 1.0
element vertex 1325
property double x
property double y
property double z
property uchar red
property uchar green
property uchar blue
end_header
0.928417 0.71271 0.579273 98 66 37
0.907562 0.720554 0.569601 99 66 36
0.882358 0.73059 0.557205 96 62 34
0.865388 0.73778 0.548283 97 63 33
0.85385 0.741063 0.544367 99 64 35
0.845425 0.744662 0.539905 99 65 36
0.788077 0.761665 0.519575 99 64 36
0.776856 0.764783 0.515863 98 65 35
0.773607 0.764869 0.515897 95 63 35
0.765495 0.768233 0.511742 97 62 33
0.758452 0.769525 0.510312 101 66 37
0.755108 0.769826 0.510073 103 68 37
0.751189 0.771271 0.508302 103 67 36
0.7251 0.778944 0.499108 102 66 37
0.717794 0.780901 0.496826 101 67 38
0.675221 0.790594 0.48569 108 72 41
0.665536 0.791129 0.485418 111 74 42
0.662328 0.791272 0.485349 111 74 43
0.652071 0.793064 0.483409 105 71 39
0.631518 0.796881 0.47922 108 72 43
0.611414 0.799902 0.476053 105 70 40
0.604691 0.800996 0.474895 103 68 38
0.601529 0.801106 0.474895 104 69 40
0.595101 0.801571 0.474554 101 66 37
0.574623 0.805755 0.469855 103 69 39
0.5715 0.805812 0.469923 106 71 41
0.568189 0.806302 0.469412 109 74 42
0.56488 0.806792 0.468901 108 73 41
0.561492 0.807467 0.468152 109 72 41
0.535107 0.811403 0.464031 103 70 40
0.51566 0.81375 0.461784 95 65 36
0.509642 0.81345 0.462465 100 67 39
0.477145 0.818002 0.457799 102 69 40
0.473899 0.818477 0.457323 102 69 39
0.462067 0.817521 0.459161 107 71 41
0.45254 0.818473 0.45831 109 72 40
0.436861 0.819631 0.457493 107 71 40
0.430244 0.821017 0.455926 104 70 40
0.427145 0.821176 0.455858 105 69 39
0.424359 0.820519 0.456846 104 69 39
0.415661 0.819434 0.458719 102 69 39
0.412349 0.820164 0.457901 103 68 38
0.405549 0.822115 0.455586 103 69 39
0.399428 0.822282 0.45562 104 70 40
0.396387 0.822314 0.455722 104 68 37
0.39031 0.82238 0.455926 98 64 36
0.381386 0.821972 0.45688 99 66 38
0.37226 0.822134 0.457084 97 64 37
0.366363 0.821737 0.457901 95 64 37
0.363527 0.821227 0.458719 93 63 37
0.360489 0.82128 0.458787 93 62 34
0.354493 0.821174 0.45923 93 63 36
0.339723 0.820307 0.461068 103 67 38
0.336716 0.82029 0.461239 100 66 36
0.333654 0.820435 0.461205 96 63 35
0.327664 0.820346 0.461579 100 64 35
0.310437 0.817926 0.465666 90 59 33
0.298346 0.818134 0.465938 90 60 33
0.269509 0.814526 0.472171 94 61 33
0.257812 0.813598 0.473975 100 64 36
0.254818 0.813592 0.474111 94 62 34
0.248907 0.813336 0.474725 96 63 34
0.243237 0.812311 0.476393 98 63 35
0.223411 0.808625 0.482285 86 57 31
0.205638 0.80806 0.483885 80 54 30
0.202629 0.808136 0.483919 80 54 30
0.187783 0.807863 0.484975 86 57 32
0.173231 0.806611 0.487359 95 63 35
0.164767 0.804909 0.490049 95 61 34
0.147225 0.803724 0.492467 94 61 35
0.130078 0.801091 0.496826 88 56 30
0.118784 0.798796 0.50047 84 52 26
0.101704 0.795836 0.505272 87 55 29
0.098826 0.795465 0.505885 84 54 28
0.08473 0.792402 0.510686 87 54 29
0.081967 0.791556 0.51198 82 51 27
0.06816 0.787198 0.518519 79 49 25
0.056575 0.785929 0.520766 79 50 26
0.013615 0.737185 0.588669 167 124 74
0.947232 0.700123 0.590031 93 62 33
0.934468 0.705124 0.583874 96 63 35
0.920577 0.712231 0.574914 98 66 35
0.916406 0.713804 0.573007 102 66 37
0.90306 0.720074 0.56514 95 64 36
0.89064 0.72475 0.559419 89 60 33
0.875094 0.729243 0.554072 98 64 34
0.86185 0.735634 0.54607 99 64 36
0.833622 0.745913 0.533503 98 65 34
0.762093 0.766006 0.509699 98 63 34
0.7511 0.768816 0.506429 103 68 37
0.704061 0.780469 0.492876 101 65 37
0.65209 0.790406 0.481876 105 70 40
0.638333 0.793047 0.478947 109 73 43
0.634874 0.793765 0.47813 108 73 42
0.631417 0.794482 0.477347 109 73 42
0.627813 0.795527 0.476087 112 74 43
0.617622 0.797344 0.474111 106 71 40
0.614263 0.797876 0.473567 106 70 40
0.597927 0.799587 0.472 103 67 37
0.587963 0.801028 0.470536 106 68 37
0.567966 0.804197 0.467164 108 74 43
0.56132 0.80525 0.466075 106 71 41
0.550846 0.808038 0.462805 108 71 41
0.531744 0.809459 0.46175 108 72 42
0.518872 0.810803 0.460558 91 62 36
0.509541 0.81108 0.460626 105 71 40
0.480667 0.814237 0.457697 107 71 40
0.465277 0.814509 0.458038 106 70 38
0.462096 0.81483 0.457765 108 71 39
0.458884 0.815235 0.457356 108 70 39
0.44947 0.81591 0.45688 110 73 42
0.446413 0.815936 0.457016 109 73 41
0.427244 0.818297 0.4547 107 70 40
0.424124 0.818509 0.454564 105 70 40
0.418639 0.816963 0.456914 105 70 39
0.415541 0.817124 0.456846 103 69 39
0.402467 0.81963 0.454053 104 68 38
0.390259 0.819888 0.454291 100 66 37
0.345756 0.817652 0.4594 97 64 36
0.342853 0.817331 0.459945 100 66 37
0.339845 0.817314 0.460115 98 65 37
0.336752 0.817542 0.459945 100 66 38
0.330702 0.817617 0.460149 97 63 34
0.321933 0.816857 0.461579 98 64 36
0.319116 0.816295 0.462465 96 61 34
0.316288 0.81576 0.463316 94 61 34
0.31048 0.815143 0.46444 92 60 34
0.29247 0.81508 0.465359 84 56 31
0.289591 0.814703 0.466006 87 57 33
0.24865 0.811481 0.472272 92 61 33
0.245677 0.811414 0.472477 96 63 35
0.242564 0.811802 0.472102 95 62 35
0.236744 0.811274 0.47309 91 61 35
0.234388 0.809202 0.476018 92 61 34
0.217548 0.805524 0.481774 90 58 32
0.202594 0.805551 0.482421 84 56 31
0.190567 0.805845 0.482591 87 58 33
0.187588 0.80583 0.482761 86 58 32
0.178914 0.804876 0.484464 91 61 33
0.158706 0.802553 0.488517 89 57 30
0.153002 0.801637 0.490049 90 58 31
0.147181 0.801148 0.490969 92 58 33
0.144364 0.80056 0.491888 91 58 30
0.132852 0.7991 0.494408 84 54 27
0.098856 0.792569 0.504829 82 50 26
0.084839 0.789168 0.510073 84 52 26
0.081982 0.788702 0.510823 79 50 26
0.071228 0.783994 0.517702 79 51 25
0.068548 0.782761 0.519473 80 50 25
0.065577 0.782749 0.519643 85 53 26
0.056652 0.782784 0.520017 78 49 25
0.051607 0.778915 0.525466 77 48 23
0.04042 0.775808 0.5302 65 43 23
0.034988 0.773518 0.533537 65 42 22
0.027888 0.765261 0.545014 67 44 24
0.011126 0.731809 0.590967 175 130 80
0.943864 0.697507 0.588355 93 62 34
0.930797 0.703069 0.581466 98 66 37
0.917145 0.709787 0.573041 102 66 35
0.903056 0.717406 0.563437 95 64 35
0.89964 0.717637 0.563267 92 62 35
0.89614 0.718025 0.562926 92 61 34
0.879412 0.724647 0.554787 97 63 35
0.787893 0.756742 0.515795 101 66 35
0.776467 0.760267 0.511572 96 64 36
0.762232 0.763091 0.508439 97 63 34
0.758476 0.764209 0.50711 97 64 35
0.736756 0.769396 0.501117 105 70 39
0.67235 0.784778 0.483409 107 71 41
0.651814 0.788378 0.479492 108 71 41
0.624278 0.793813 0.473464 110 74 42
0.601149 0.796723 0.470638 103 69 39
0.578226 0.799382 0.468118 104 67 39
0.574495 0.800818 0.466347 106 70 41
0.57077 0.802252 0.46461 106 72 42
0.567681 0.802236 0.46478 107 73 43
0.5642 0.803126 0.463725 104 71 42
0.518896 0.808133 0.459093 93 63 37
0.496712 0.809814 0.457867 103 71 40
0.483976 0.811003 0.45688 109 73 41
0.4683 0.811968 0.456301 104 68 37
0.461983 0.812496 0.455892 112 71 39
0.439945 0.814283 0.45453 105 70 39
0.427261 0.815628 0.453304 106 69 39
0.412218 0.815258 0.454496 102 69 39
0.396287 0.81733 0.452453 104 68 39
0.372319 0.816705 0.454428 93 62 36
0.366358 0.816482 0.455007 96 65 38
0.357212 0.816734 0.455109 92 62 35
0.345809 0.81486 0.458174 94 62 34
0.34292 0.814497 0.458787 94 62 34
0.316369 0.812868 0.462226 95 61 33
0.313424 0.812679 0.462635 94 61 34
0.307467 0.812504 0.463146 89 59 34
0.295362 0.812755 0.46335 93 61 34
0.292477 0.812398 0.463997 89 58 33
0.286592 0.812034 0.464747 94 62 36
0.28371 0.811668 0.465393 95 63 35
0.275063 0.810572 0.467266 92 60 34
0.266523 0.809138 0.469616 93 60 34
0.248658 0.808775 0.470944 92 61 33
0.245867 0.80812 0.471932 93 63 35
0.236881 0.808144 0.472341 90 60 33
0.231958 0.804667 0.477244 89 60 35
0.21164 0.802577 0.481025 85 56 31
0.190563 0.803146 0.481263 88 59 34
0.187575 0.803163 0.481365 89 59 33
0.184775 0.802525 0.482353 87 57 32
0.158643 0.800051 0.486916 93 59 31
0.150005 0.798975 0.488789 92 60 33
0.126969 0.796104 0.493761 86 54 28
0.124085 0.795762 0.49434 84 54 29
0.107609 0.790458 0.502275 80 51 26
0.096141 0.788763 0.505101 79 50 26
0.090607 0.787102 0.507587 80 51 26
0.084844 0.786361 0.508881 81 50 24
0.071312 0.780839 0.516952 82 51 25
0.068766 0.779037 0.519507 80 50 26
0.06247 0.780503 0.517838 88 53 26
0.059513 0.78044 0.518042 80 50 26
0.048801 0.775356 0.525398 78 50 24
0.04578 0.775561 0.525296 77 49 25
0.043086 0.774324 0.527067 75 47 23
0.040365 0.77321 0.528701 69 45 23
0.029985 0.766387 0.538407 73 47 26
0.945069 0.692656 0.589469 97 66 37
0.93155 0.699031 0.581524 98 66 38
0.918541 0.704578 0.574675 102 66 35
0.913221 0.708228 0.57001 99 65 35
0.903008 0.714816 0.561632 101 67 37
0.900883 0.712691 0.564561 99 65 35
0.866331 0.728042 0.545525 99 63 34
0.842973 0.735199 0.537011 99 65 35
0.785431 0.75264 0.516237 95 64 35
0.776219 0.758112 0.50929 96 64 37
0.761831 0.761251 0.505748 96 64 36
0.700802 0.775418 0.489538 102 67 37
0.679908 0.779498 0.485043 105 70 39
0.669838 0.780816 0.483715 109 73 41
0.656192 0.783102 0.481297 108 70 40
0.647516 0.788259 0.474759 110 73 41
0.631133 0.789867 0.473362 109 71 41
0.594378 0.795344 0.467709 105 68 39
0.584508 0.79659 0.466517 108 70 39
0.570021 0.801351 0.460796 108 71 41
0.567066 0.801034 0.461341 109 73 43
0.560626 0.801622 0.460864 106 72 43
0.557407 0.80192 0.460626 105 71 41
0.550932 0.802612 0.459979 111 74 44
0.54454 0.803129 0.459604 104 70 40
0.534769 0.804361 0.458378 111 75 43
0.5283 0.805097 0.457697 109 72 42
0.512712 0.80561 0.457765 103 70 40
0.502916 0.807026 0.456301 104 69 39
0.49975 0.807266 0.456131 105 72 41
0.465034 0.809881 0.454257 109 71 39
0.458703 0.810454 0.453781 110 72 39
0.452378 0.811026 0.453304 106 71 40
0.384566 0.813653 0.452963 96 63 36
0.381548 0.813632 0.453134 94 63 37
0.378455 0.813822 0.453032 93 62 36
0.363262 0.81406 0.453406 97 64 36
0.345762 0.81235 0.456539 93 62 34
0.342869 0.811999 0.457152 94 62 35
0.339913 0.81183 0.457527 96 63 36
0.325051 0.81124 0.459025 94 61 34
0.322167 0.810869 0.459672 91 59 33
0.319311 0.810416 0.460387 91 59 34
0.310511 0.809739 0.461715 90 60 34
0.269177 0.807548 0.466619 90 61 33
0.257818 0.805545 0.469855 93 63 35
0.254887 0.805336 0.470297 98 65 36
0.245963 0.805128 0.470979 90 61 34
0.234288 0.804153 0.472852 95 62 35
0.220372 0.80069 0.478164 92 61 35
0.217438 0.800494 0.478573 90 60 33
0.211676 0.799752 0.479833 85 57 32
0.193606 0.800234 0.480071 87 59 33
0.178969 0.799246 0.48208 85 56 32
0.158665 0.797241 0.485758 93 59 31
0.129737 0.794134 0.491309 82 53 26
0.127071 0.792962 0.493012 84 53 26
0.12424 0.792413 0.493863 84 52 27
0.08492 0.783257 0.508064 79 49 24
0.082059 0.7828 0.508813 80 49 24
0.079346 0.781725 0.51038 79 49 25
0.068658 0.776678 0.517702 80 50 25
0.037607 0.769413 0.52894 77 49 24
0.032468 0.765772 0.534082 78 50 27
0.029893 0.763948 0.53667 83 53 29
0.949384 0.688197 0.589905 107 70 37
0.944937 0.690199 0.587426 103 70 38
0.880287 0.717689 0.553527 101 66 37
0.870632 0.723452 0.54624 102 64 35
0.834807 0.735706 0.53146 102 67 37
0.826957 0.738307 0.528327 100 65 35
0.815464 0.741736 0.524274 100 66 38
0.811639 0.742877 0.522912 102 67 38
0.808162 0.743361 0.522435 105 68 37
0.800003 0.746671 0.518349 101 66 36
0.792371 0.748993 0.51559 105 70 39
0.781221 0.751952 0.512151 98 65 36
0.772892 0.755721 0.507485 97 64 36
0.768931 0.757223 0.505646 98 65 35
0.750834 0.761445 0.500811 104 67 36
0.71432 0.771021 0.489674 102 68 37
0.704153 0.772402 0.488278 101 68 38
0.700696 0.773011 0.487631 102 68 38
0.686898 0.77544 0.485009 104 71 42
0.683667 0.775601 0.484975 104 69 39
0.680132 0.776404 0.484056 107 70 41
0.67661 0.777186 0.48317 106 70 40
0.662852 0.779673 0.48048 108 71 40
0.648086 0.784414 0.474793 108 71 41
0.640901 0.786408 0.472443 113 75 42
0.63744 0.787129 0.47166 111 74 43
0.600893 0.792062 0.466756 106 69 39
0.57042 0.797825 0.460456 109 73 41
0.554353 0.799224 0.459332 106 71 40
0.54786 0.799966 0.458616 107 71 40
0.531555 0.802064 0.456573 110 75 42
0.518889 0.80292 0.456028 112 77 45
0.502815 0.804656 0.454462 109 73 42
0.490343 0.805168 0.45436 105 71 40
0.484075 0.805523 0.454189 107 72 41
0.474494 0.806525 0.453304 107 72 40
0.471301 0.806867 0.452998 106 71 39
0.439602 0.809926 0.450375 107 72 41
0.42746 0.809861 0.451022 107 70 40
0.415188 0.81018 0.451192 102 67 37
0.393147 0.812378 0.449285 102 67 35
0.384623 0.810864 0.451703 95 65 36
0.381551 0.810991 0.451703 96 64 37
0.372358 0.811327 0.451669 97 65 38
0.351523 0.810481 0.453815 96 63 35
0.345786 0.809637 0.455211 95 63 35
0.328064 0.808589 0.457459 94 62 36
0.325169 0.808244 0.458072 95 62 34
0.316532 0.807079 0.460047 93 59 31
0.307443 0.80726 0.460217 98 64 35
0.269156 0.80494 0.465155 91 60 33
0.254768 0.803034 0.468424 99 64 35
0.248898 0.80264 0.469208 92 60 33
0.225793 0.799867 0.474043 92 60 34
0.220313 0.798185 0.476563 91 59 33
0.211347 0.798159 0.47704 88 59 33
0.181982 0.796421 0.480752 83 56 32
0.176139 0.795986 0.481638 83 55 31
0.173294 0.795498 0.482421 86 57 32
0.167635 0.794406 0.484158 94 61 34
0.161664 0.794439 0.484396 92 59 31
0.147049 0.793421 0.486473 87 55 29
0.129871 0.790875 0.490696 82 51 27
0.127127 0.789994 0.492024 81 51 26
0.119099 0.786532 0.497064 82 50 26
0.116264 0.785982 0.497916 83 52 26
0.1133 0.785934 0.498154 84 53 26
0.101902 0.783949 0.501356 81 50 25
0.090677 0.781246 0.50551 78 49 24
0.087907 0.780411 0.50677 79 49 24
0.082132 0.779702 0.507996 80 50 25
0.07663 0.777858 0.510754 77 49 26
0.071229 0.77557 0.514092 81 49 25
0.068559 0.774283 0.515931 80 49 25
0.062544 0.774561 0.515863 82 51 26
0.048882 0.769334 0.523525 81 50 25
0.040634 0.766337 0.527952 81 52 27
0.037767 0.765856 0.528735 78 50 25
0.035066 0.764623 0.530506 80 52 28
0.945025 0.687341 0.585903 106 71 39
0.936147 0.69134 0.580942 98 65 36
0.922672 0.697708 0.573041 102 67 38
0.914008 0.701432 0.568478 101 67 38
0.899729 0.709441 0.558397 104 69 38
0.884615 0.713074 0.554242 101 67 36
0.870581 0.720877 0.544435 102 65 35
0.838771 0.731688 0.531426 100 65 34
0.815729 0.738572 0.523287 100 66 36
0.769374 0.753709 0.505136 97 65 36
0.764937 0.756156 0.502071 98 65 36
0.758309 0.756628 0.501764 100 65 36
0.743679 0.760377 0.497405 99 65 36
0.736364 0.762288 0.495191 101 66 36
0.721834 0.765992 0.490935 102 67 37
0.71472 0.767572 0.48913 100 66 36
0.690333 0.77223 0.484056 102 67 38
0.66586 0.777337 0.478334 108 72 41
0.658119 0.780451 0.474554 107 71 42
0.655073 0.780254 0.474963 108 72 41
0.640954 0.783675 0.471012 112 73 43
0.630469 0.786081 0.468288 114 74 42
0.627154 0.786501 0.467879 110 73 41
0.623842 0.786921 0.467471 107 71 42
0.620531 0.78734 0.467062 107 71 41
0.600912 0.789403 0.465257 107 71 41
0.577364 0.793497 0.460864 106 68 37
0.550737 0.797839 0.456301 110 73 42
0.544437 0.79814 0.456199 107 73 42
0.528046 0.800471 0.453849 116 80 45
0.521781 0.800742 0.453781 116 79 47
0.516199 0.799379 0.455892 112 77 45
0.513131 0.799364 0.456062 109 76 45
0.471195 0.804513 0.451125 107 72 40
0.452191 0.806262 0.449694 107 73 41
0.445718 0.807232 0.448707 102 69 39
0.439497 0.807574 0.448536 104 71 41
0.436702 0.80693 0.449524 106 71 41
0.427539 0.807029 0.44983 108 71 40
0.417731 0.808856 0.447855 101 68 38
0.366036 0.809472 0.44949 96 65 37
0.356903 0.809691 0.449626 92 62 35
0.348663 0.80739 0.4531 96 63 35
0.345626 0.807451 0.453168 97 63 36
0.336551 0.807538 0.453474 98 63 34
0.330844 0.806613 0.455007 98 63 35
0.322329 0.805088 0.457459 99 63 35
0.319442 0.804721 0.458072 95 60 33
0.316554 0.804358 0.458719 93 60 33
0.307408 0.804709 0.458685 101 65 37
0.289493 0.80435 0.460013 103 69 39
0.286525 0.804245 0.460285 101 68 40
0.280732 0.803592 0.461443 95 62 34
0.272005 0.802741 0.46301 92 61 33
0.269052 0.802595 0.46335 94 60 34
0.266223 0.802058 0.464202 91 59 33
0.231692 0.797463 0.472034 92 61 33
0.208122 0.796254 0.474759 92 61 35
0.201888 0.797142 0.473873 91 60 33
0.199148 0.796296 0.475133 92 62 35
0.176187 0.793094 0.480548 89 57 32
0.170567 0.791858 0.482455 95 61 34
0.158778 0.791365 0.483681 90 58 33
0.153058 0.790487 0.485145 85 54 29
0.147135 0.790363 0.485588 85 53 28
0.135944 0.787668 0.489743 83 52 28
0.11926 0.783142 0.496622 82 50 26
0.10506 0.780448 0.500913 82 52 27
0.102084 0.780447 0.501083 76 48 24
0.093527 0.778964 0.503467 79 50 25
0.082217 0.776555 0.507247 79 50 25
0.0711 0.773302 0.512151 80 49 25
0.068477 0.771816 0.514262 80 49 25
0.059561 0.771783 0.514739 80 51 26
0.040658 0.763393 0.526897 80 51 27
0.035059 0.761801 0.529315 76 50 25
0.941787 0.684484 0.584541 101 67 37
0.931499 0.691043 0.576242 98 65 34
0.92761 0.692079 0.57505 95 63 35
0.919232 0.695261 0.571168 95 63 35
0.847094 0.725579 0.53398 99 66 36
0.747507 0.756454 0.497337 100 65 35
0.733892 0.758217 0.495634 102 67 37
0.729885 0.759899 0.493557 103 68 38
0.718354 0.763992 0.488619 102 66 37
0.707697 0.766363 0.485963 99 64 34
0.700506 0.768153 0.483885 104 69 40
0.683408 0.770893 0.481025 108 72 41
0.662247 0.775717 0.475576 105 69 40
0.658663 0.776666 0.474486 104 70 40
0.654994 0.777804 0.473124 103 69 39
0.648 0.77936 0.471387 105 69 40
0.63381 0.78299 0.467198 117 77 45
0.627127 0.783943 0.466245 110 74 41
0.577748 0.790007 0.460456 105 68 38
0.567698 0.791737 0.458616 109 71 41
0.557384 0.79413 0.455926 108 72 40
0.550201 0.796477 0.4531 110 74 43
0.544125 0.796258 0.453713 106 73 42
0.534254 0.797733 0.45218 113 78 46
0.531135 0.79783 0.452214 116 81 48
0.527928 0.798138 0.451942 115 80 47
0.519091 0.797202 0.453645 114 79 46
0.516373 0.796343 0.454905 114 78 45
0.513453 0.795967 0.455552 114 77 44
0.506276 0.798467 0.452555 109 74 42
0.445729 0.804582 0.447242 100 68 39
0.439508 0.804923 0.447072 105 70 40
0.433677 0.80426 0.448264 102 68 39
0.430599 0.804355 0.448264 105 69 39
0.362983 0.806927 0.448059 97 64 36
0.354167 0.806256 0.449388 95 62 35
0.33073 0.804297 0.453134 99 64 35
0.322207 0.802792 0.455552 98 64 35
0.304319 0.802292 0.457084 96 63 35
0.272024 0.800009 0.461715 92 61 34
0.225568 0.795226 0.470331 90 59 31
0.217301 0.792852 0.473941 95 63 34
0.214301 0.792877 0.474043 92 61 35
0.211344 0.792762 0.47435 92 60 33
0.201775 0.794822 0.472034 91 61 34
0.199011 0.794059 0.473192 90 60 34
0.193776 0.791506 0.47687 87 57 33
0.190934 0.790999 0.477687 86 56 31
0.187967 0.790932 0.477925 85 56 32
0.181972 0.791019 0.478096 86 56 30
0.179114 0.790572 0.478811 89 57 31
0.147177 0.787465 0.484532 84 53 27
0.133255 0.783822 0.490083 83 52 27
0.130373 0.783451 0.490696 83 52 27
0.119158 0.780772 0.494851 81 51 26
0.102104 0.777588 0.499925 76 48 24
0.08795 0.774653 0.504556 84 52 26
0.074129 0.770271 0.511095 78 48 24
0.065222 0.770188 0.51164 81 50 26
0.062577 0.768785 0.513649 83 51 27
0.049063 0.762871 0.522231 82 51 25
0.043532 0.761007 0.52499 78 50 26
0.032287 0.758022 0.529519 75 50 26
0.025006 0.750454 0.540042 84 52 27
0.975784 0.662884 0.606479 101 70 39
0.9421 0.681223 0.583547 99 67 36
0.936767 0.684833 0.578966 99 67 37
0.923724 0.690427 0.572121 92 61 33
0.876824 0.710016 0.548147 101 67 37
0.867261 0.715642 0.541063 101 65 35
0.863372 0.716808 0.539701 97 62 33
0.835386 0.726636 0.527884 98 63 34
0.823732 0.730324 0.523491 100 63 34
0.815525 0.733665 0.519404 100 65 34
0.801719 0.735393 0.51777 100 67 37
0.785002 0.7429 0.508507 102 69 38
0.781215 0.744035 0.507179 107 71 42
0.770596 0.746007 0.505067 98 64 35
0.762723 0.748931 0.501526 100 66 35
0.756283 0.749023 0.501696 100 66 36
0.747415 0.754 0.495464 100 66 37
0.725734 0.759248 0.48947 105 69 40
0.700428 0.765688 0.48208 106 71 42
0.662743 0.772036 0.475371 104 69 39
0.655505 0.774086 0.472988 100 67 38
0.616889 0.783263 0.462567 111 73 44
0.610868 0.782794 0.463486 108 71 40
0.607913 0.782438 0.464099 106 71 41
0.593766 0.786256 0.459672 105 70 40
0.571136 0.788335 0.45797 109 71 41
0.567782 0.788928 0.457323 108 71 41
0.557322 0.791658 0.454189 108 71 40
0.537232 0.795361 0.450205 107 73 42
0.530728 0.796183 0.449388 115 81 48
0.518764 0.795371 0.451056 112 79 45
0.515945 0.794754 0.45201 112 78 44
0.512967 0.794522 0.452487 113 75 44
0.506298 0.795795 0.451091 109 74 44
0.499755 0.796784 0.450103 106 72 41
0.496741 0.796654 0.450409 110 73 41
0.493388 0.797361 0.449626 104 70 41
0.473972 0.799973 0.447072 105 69 39
0.470779 0.800317 0.446766 107 70 40
0.461607 0.800344 0.447174 104 69 39
0.448897 0.801648 0.446016 108 72 41
0.436719 0.801638 0.446629 103 69 40
0.430391 0.802273 0.446084 105 70 40
0.420882 0.803301 0.445165 106 71 40
0.417716 0.803643 0.444858 109 73 42
0.396263 0.80425 0.445063 105 69 37
0.369113 0.80404 0.446663 97 65 37
0.35146 0.80273 0.449251 97 63 35
0.324974 0.800859 0.453032 97 63 35
0.319192 0.800149 0.454291 93 62 34
0.298398 0.799352 0.456335 94 62 35
0.266189 0.796814 0.461307 90 58 32
0.260517 0.79578 0.462941 90 59 33
0.257655 0.795344 0.463691 89 58 32
0.225636 0.792301 0.46931 95 62 33
0.219939 0.791336 0.470876 92 61 34
0.214288 0.790217 0.472647 89 58 33
0.201224 0.794009 0.468186 92 60 34
0.187963 0.788227 0.476563 86 55 32
0.167726 0.785887 0.480684 88 56 32
0.156101 0.784782 0.482727 83 53 29
0.153198 0.784494 0.483238 85 53 28
0.147245 0.784469 0.483579 84 53 28
0.110196 0.778125 0.493863 80 50 26
0.107601 0.776622 0.496009 79 50 26
0.105044 0.774955 0.498359 77 50 24
0.10234 0.773864 0.499925 80 50 25
0.099814 0.77205 0.502479 83 50 26
0.09657 0.773121 0.501219 81 51 25
0.062622 0.765774 0.512696 83 51 26
0.040651 0.757719 0.524547 68 45 24
0.037838 0.756983 0.525671 66 43 23
0.035025 0.756246 0.526794 68 45 25
0.029468 0.754442 0.529485 82 49 24
0.952902 0.6711 0.591216 102 68 37
0.948213 0.673527 0.588199 102 69 38
0.94398 0.675142 0.586244 97 65 36
0.897485 0.699489 0.555945 98 65 35
0.885365 0.703664 0.550939 103 66 38
0.860188 0.713996 0.538339 99 63 33
0.856387 0.715007 0.537181 97 63 34
0.788829 0.739048 0.508302 100 67 36
0.752071 0.748422 0.497541 100 66 37
0.74813 0.749926 0.495702 102 67 38
0.744946 0.749918 0.495872 101 67 37
0.726046 0.75598 0.488687 109 72 41
0.659028 0.77064 0.472341 102 66 37
0.651777 0.772733 0.469889 105 70 40
0.644787 0.774294 0.468118 108 71 41
0.641442 0.774757 0.467675 109 71 42
0.62772 0.777406 0.46478 110 74 41
0.620419 0.779735 0.462022 106 72 42
0.616808 0.780824 0.460762 110 74 42
0.607795 0.780081 0.462192 109 72 41
0.590491 0.784019 0.457765 104 70 40
0.567786 0.786301 0.45579 105 70 40
0.560837 0.788058 0.453781 107 72 40
0.553481 0.790796 0.450477 105 70 41
0.549947 0.791843 0.449251 106 71 40
0.546997 0.791527 0.44983 109 75 43
0.543871 0.791625 0.44983 107 76 44
0.534042 0.793009 0.448468 111 76 43
0.527656 0.793556 0.448025 117 82 47
0.499572 0.794612 0.447992 104 71 40
0.496443 0.794766 0.447923 108 71 40
0.486539 0.796527 0.44605 106 70 39
0.47051 0.798374 0.444348 107 71 40
0.467319 0.798719 0.444041 107 71 39
0.433438 0.799633 0.444484 104 71 41
0.414466 0.801587 0.442781 108 74 42
0.402326 0.80161 0.443326 101 69 39
0.372183 0.801266 0.445267 98 66 37
0.366123 0.801313 0.445471 96 66 37
0.363059 0.801435 0.445471 99 67 39
0.351567 0.799783 0.44823 96 64 35
0.348671 0.799433 0.448843 98 64 35
0.3305 0.799666 0.449422 96 62 37
0.321847 0.798544 0.451329 90 60 35
0.31016 0.797498 0.453304 96 64 36
0.307265 0.797157 0.453883 95 64 35
0.277903 0.795046 0.45814 95 62 35
0.272062 0.79454 0.459093 91 60 33
0.2662 0.794102 0.459979 89 58 32
0.25187 0.791981 0.463486 94 61 33
0.240236 0.790833 0.465598 95 62 33
0.234607 0.789644 0.467471 95 61 34
0.228663 0.789492 0.467947 96 62 34
0.222513 0.790038 0.467505 94 60 32
0.207856 0.789042 0.469548 88 59 33
0.201099 0.791731 0.466279 90 59 33
0.196708 0.78627 0.473805 90 59 34
0.193909 0.785612 0.474826 88 57 33
0.190917 0.785627 0.474929 84 54 31
0.173449 0.784039 0.477925 91 58 32
0.147313 0.781471 0.482625 83 53 27
0.135508 0.781064 0.483749 83 52 27
0.132063 0.782844 0.481535 81 52 26
0.130393 0.777861 0.488278 80 51 26
0.127656 0.776935 0.48964 79 50 26
0.110688 0.773413 0.495157 83 53 28
0.10492 0.772671 0.496451 79 51 26
0.09951 0.770486 0.499619 83 51 26
0.079485 0.767147 0.505067 80 49 25
0.071593 0.76279 0.511265 78 49 25
0.068959 0.76133 0.513343 78 49 25
0.065812 0.762046 0.51256 82 51 26
0.062806 0.762167 0.512525 83 52 26
0.032247 0.752487 0.526964 73 47 26
0.026723 0.750501 0.529893 86 54 27
0.938725 0.675907 0.580124 102 68 38
0.911563 0.68912 0.563812 97 64 35
0.868041 0.708846 0.539599 104 66 36
0.864775 0.708843 0.539769 101 64 35
0.860804 0.71017 0.538169 99 64 34
0.853121 0.712352 0.535649 94 61 33
0.848422 0.715077 0.532209 97 62 34
0.843733 0.717796 0.528804 99 64 34
0.820003 0.725955 0.519064 100 66 35
0.816502 0.726473 0.518553 97 63 33
0.812872 0.727238 0.517702 98 64 34
0.778657 0.737457 0.505714 103 69 38
0.774737 0.738868 0.504046 101 66 36
0.763223 0.742653 0.49955 99 66 36
0.756021 0.744265 0.497746 100 66 36
0.733596 0.750917 0.489947 102 67 37
0.722414 0.75428 0.485997 106 69 39
0.683074 0.763719 0.475303 107 73 41
0.672846 0.765364 0.473601 103 69 39
0.662604 0.767084 0.471796 106 70 39
0.659047 0.767975 0.470774 101 66 37
0.655493 0.768865 0.469787 103 68 39
0.652201 0.769198 0.46948 107 72 41
0.635316 0.771843 0.46679 109 73 41
0.631484 0.773383 0.464917 110 72 40
0.627692 0.774847 0.463146 108 72 42
0.616917 0.777966 0.459502 110 74 43
0.613653 0.778295 0.45923 109 73 42
0.591043 0.780153 0.457833 104 69 40
0.583042 0.784225 0.452793 103 68 39
0.567527 0.784281 0.453474 106 70 41
0.553634 0.787823 0.449422 110 75 43
0.518009 0.791953 0.445641 113 77 44
0.511578 0.792649 0.444995 115 77 45
0.502734 0.791763 0.446629 106 72 41
0.473641 0.795562 0.442951 102 68 38
0.470423 0.795973 0.442577 103 69 38
0.467206 0.796384 0.442168 105 69 38
0.464052 0.796642 0.441998 104 68 39
0.458337 0.795654 0.443598 105 69 39
0.439415 0.797293 0.442304 110 75 43
0.433312 0.797335 0.442542 109 74 43
0.414346 0.799279 0.440874 105 71 41
0.411446 0.79892 0.441521 106 72 42
0.408446 0.798832 0.441759 103 70 40
0.402294 0.799066 0.441759 104 70 39
0.399214 0.799198 0.441725 105 71 41
0.357461 0.797546 0.445948 96 63 35
0.354614 0.797057 0.446766 98 63 36
0.339555 0.796977 0.447583 100 66 36
0.330518 0.796963 0.448059 93 61 35
0.327624 0.796615 0.448673 93 61 34
0.313059 0.795167 0.451295 93 61 34
0.310171 0.794804 0.451942 94 62 35
0.289692 0.793072 0.455245 95 61 34
0.286721 0.792969 0.455517 95 61 34
0.234607 0.786947 0.466109 93 60 31
0.225592 0.787052 0.466381 92 60 32
0.222549 0.787218 0.466313 92 59 30
0.219763 0.786525 0.467369 90 58 32
0.211181 0.785197 0.469582 88 59 33
0.204685 0.786962 0.467539 85 58 31
0.20139 0.788022 0.466279 84 56 32
0.198926 0.786221 0.468799 84 56 31
0.181982 0.782816 0.47418 82 53 30
0.153192 0.779032 0.48065 90 58 33
0.150296 0.778717 0.481195 84 53 27
0.144366 0.778603 0.481638 83 52 27
0.136055 0.776236 0.485213 85 53 28
0.131939 0.780565 0.479628 83 53 27
0.127566 0.774519 0.487904 81 52 26
0.118661 0.774403 0.488517 82 51 25
0.111196 0.76863 0.496588 82 52 27
0.099242 0.768778 0.496962 81 52 27
0.090924 0.766282 0.500708 83 52 26
0.085049 0.765953 0.501423 80 52 24
0.082375 0.764706 0.503228 79 50 24
0.079287 0.765166 0.502752 79 49 24
0.0741 0.761961 0.507281 79 49 25
0.071555 0.760138 0.509835 79 49 25
0.068835 0.75904 0.511435 82 51 26
0.065772 0.759394 0.511129 85 52 28
0.057312 0.757356 0.514262 81 50 24
0.05191 0.754936 0.51777 78 49 25
0.043495 0.752632 0.521243 78 49 26
0.040648 0.752041 0.522163 75 48 25
0.032291 0.74943 0.526079 70 46 25
0.029239 0.749748 0.525773 83 53 27
0.026648 0.747987 0.528259 87 54 27
0.973825 0.652242 0.60464 100 70 38
0.938589 0.673448 0.578081 100 66 37
0.92906 0.678677 0.571576 96 63 35
0.90704 0.688667 0.559351 100 65 36
0.872352 0.704229 0.54028 107 69 38
0.844829 0.713049 0.529859 98 63 35
0.840473 0.715148 0.527271 102 66 36
0.80367 0.729913 0.509392 102 68 37
0.792981 0.731924 0.507247 100 66 37
0.789865 0.731726 0.507655 101 68 37
0.782373 0.73382 0.505203 100 66 34
0.762709 0.741032 0.496554 99 66 36
0.740941 0.746296 0.490594 97 64 34
0.737202 0.747422 0.4893 102 68 36
0.733466 0.748547 0.487972 102 67 37
0.726375 0.750039 0.486337 106 68 37
0.710562 0.756469 0.478539 107 70 39
0.701298 0.755992 0.479628 102 67 37
0.693372 0.759341 0.475542 102 68 40
0.689686 0.760453 0.474248 107 71 41
0.651585 0.767903 0.466143 108 72 41
0.623861 0.773787 0.459672 106 70 40
0.586814 0.780083 0.453065 104 69 40
0.582914 0.7819 0.450852 103 69 40
0.577524 0.780046 0.453576 103 67 37
0.567531 0.781653 0.451942 109 74 43
0.514786 0.789701 0.443769 114 78 44
0.505206 0.790601 0.443053 107 74 42
0.502274 0.79027 0.443632 108 73 43
0.499201 0.790284 0.443769 103 71 41
0.492789 0.79098 0.443156 101 68 39
0.473672 0.792866 0.441555 103 69 40
0.470452 0.793278 0.44118 103 69 40
0.461016 0.793981 0.440704 103 69 39
0.452249 0.792997 0.442441 107 71 42
0.439455 0.794563 0.440976 114 77 44
0.417499 0.796337 0.439682 99 67 38
0.41153 0.796066 0.440329 104 71 40
0.40842 0.79627 0.440227 106 71 40
0.402233 0.796599 0.440091 106 72 42
0.392962 0.797093 0.439852 102 68 38
0.386794 0.797404 0.43975 99 67 38
0.383732 0.797505 0.439784 99 68 39
0.38084 0.797141 0.440397 99 67 38
0.378094 0.796369 0.441555 100 67 38
0.360427 0.795056 0.444177 97 65 36
0.354763 0.793986 0.44588 98 64 37
0.34567 0.794091 0.446186 97 66 37
0.339577 0.794263 0.446255 98 65 37
0.336516 0.794396 0.446221 91 62 35
0.321602 0.793959 0.447549 90 60 34
0.313068 0.792481 0.449933 93 61 33
0.298494 0.791066 0.452521 92 61 34
0.289742 0.79025 0.454053 92 59 32
0.283707 0.790327 0.454224 93 59 34
0.251934 0.786402 0.461034 92 60 33
0.234625 0.784191 0.464814 93 60 32
0.231733 0.783848 0.465428 93 62 34
0.222745 0.78386 0.465836 91 59 33
0.207649 0.784335 0.465938 88 58 32
0.201785 0.783952 0.466756 85 56 31
0.196645 0.781058 0.470842 86 56 32
0.182051 0.779849 0.473192 84 55 29
0.17925 0.779191 0.47418 92 60 33
0.176267 0.779179 0.47435 93 59 33
0.158859 0.777385 0.477619 81 52 25
0.156057 0.776724 0.478607 85 56 31
0.144356 0.77589 0.48031 85 53 27
0.138851 0.774177 0.482864 86 55 28
0.133059 0.773543 0.483987 83 53 28
0.12444 0.772322 0.486031 83 52 27
0.121419 0.772492 0.485963 84 52 26
0.118537 0.77212 0.48661 83 51 26
0.11117 0.765953 0.495191 82 53 27
0.10821 0.765871 0.49543 84 53 28
0.099244 0.76598 0.495736 81 52 28
0.07917 0.762846 0.500913 80 50 26
0.076518 0.761494 0.50282 81 50 26
0.065591 0.757346 0.508881 83 52 28
0.062813 0.75649 0.510176 82 51 26
0.049318 0.750396 0.518962 78 50 25
0.037733 0.748905 0.521516 68 44 23
0.03491 0.748199 0.522606 65 43 22
0.029124 0.747419 0.523934 76 49 23
0.924504 0.678232 0.567081 99 64 34
0.91569 0.682236 0.562177 95 63 33
0.911512 0.683833 0.56027 96 63 34
0.881894 0.695977 0.545559 105 68 36
0.861455 0.703605 0.536398 95 62 32
0.857484 0.704937 0.534831 96 63 34
0.848946 0.708752 0.530166 98 64 33
0.845108 0.709856 0.528872 97 63 34
0.840422 0.712581 0.525466 100 66 37
0.82441 0.718392 0.518519 104 68 36
0.808091 0.72494 0.510618 103 67 37
0.793464 0.728326 0.506804 104 68 38
0.78224 0.731431 0.503228 100 66 35
0.774475 0.734096 0.500061 99 65 36
0.766346 0.737517 0.495907 100 66 36
0.726614 0.746916 0.485349 104 68 38
0.715087 0.751036 0.480412 106 70 38
0.708393 0.751771 0.479765 106 70 38
0.704998 0.752245 0.479288 103 67 36
0.693294 0.756878 0.473703 106 71 41
0.686371 0.758162 0.472341 107 72 41
0.679932 0.758442 0.472272 107 73 43
0.662049 0.763024 0.467062 107 70 41
0.638365 0.766773 0.463214 109 73 43
0.63504 0.7672 0.462805 106 72 43
0.631228 0.768703 0.461 106 72 42
0.624318 0.770159 0.4594 105 70 40
0.614141 0.77197 0.457493 109 74 44
0.607618 0.772617 0.456948 109 72 41
0.604479 0.772672 0.45705 107 71 42
0.601125 0.773213 0.456471 108 72 42
0.597693 0.773937 0.455688 106 71 42
0.56392 0.780231 0.448945 109 74 43
0.521396 0.785965 0.443428 115 79 45
0.511564 0.787449 0.44193 112 74 41
0.499222 0.787613 0.442304 103 69 40
0.467324 0.790842 0.43958 100 66 37
0.464156 0.791134 0.439342 100 66 38
0.452276 0.790302 0.441044 107 72 41
0.449185 0.790409 0.441044 110 75 42
0.442729 0.791343 0.440125 114 77 44
0.430162 0.792367 0.439376 110 73 43
0.420651 0.793404 0.438456 107 73 42
0.392935 0.794533 0.43832 103 69 39
0.378043 0.793874 0.43992 101 69 39
0.375139 0.793537 0.440499 99 67 38
0.372179 0.79336 0.440908 100 68 39
0.357665 0.791678 0.443837 98 66 36
0.354776 0.791305 0.444484 100 67 38
0.348714 0.791368 0.444688 103 70 40
0.330553 0.791555 0.445335 98 65 37
0.324577 0.791409 0.445846 91 60 35
0.310061 0.789813 0.448673 91 61 34
0.292755 0.787559 0.452521 88 56 31
0.28971 0.78768 0.452521 89 59 30
0.260468 0.785209 0.457254 93 60 33
0.231821 0.780858 0.46444 95 61 34
0.229033 0.780163 0.465495 92 60 33
0.219898 0.780666 0.465291 86 56 32
0.21406 0.780163 0.466245 91 60 34
0.206109 0.776651 0.471319 90 60 33
0.196761 0.777936 0.470059 88 57 32
0.19094 0.777385 0.471081 88 56 31
0.188038 0.77708 0.471626 87 55 30
0.173438 0.775889 0.473941 88 55 31
0.170598 0.775363 0.474759 87 55 30
0.167636 0.77528 0.475031 91 58 31
0.161574 0.775628 0.474861 82 51 27
0.121517 0.769343 0.485213 83 52 27
0.118892 0.767967 0.487155 82 51 27
0.113803 0.764549 0.491956 83 52 25
0.111162 0.763205 0.493897 84 53 26
0.085333 0.759182 0.500504 82 51 27
0.082414 0.758935 0.500981 79 49 26
0.079368 0.759216 0.500776 79 49 25
0.071064 0.756576 0.504693 79 49 25
0.068305 0.755649 0.506055 81 51 24
0.065591 0.754523 0.50769 81 49 24
0.057386 0.751371 0.512287 81 49 25
0.037678 0.746298 0.520017 73 47 24
0.035012 0.744881 0.522027 69 45 25
0.032195 0.744142 0.52315 68 45 24
0.029216 0.744135 0.523321 74 48 25
0.935217 0.668131 0.574675 99 65 36
0.929452 0.672566 0.569056 97 64 35
0.912251 0.679791 0.560304 95 63 34
0.903475 0.683784 0.555434 98 64 34
0.877549 0.695284 0.541404 109 70 38
0.853135 0.704318 0.530608 99 63 34
0.840293 0.710169 0.523457 98 64 36
0.812777 0.719459 0.512457 100 66 35
0.804338 0.72331 0.507758 101 67 36
0.801116 0.723305 0.507928 100 66 35
0.793502 0.725604 0.505238 104 69 38
0.778596 0.729639 0.500606 102 67 37
0.771141 0.731705 0.498222 95 63 33
0.755054 0.738288 0.490288 100 65 35
0.748171 0.739287 0.4893 101 66 36
0.690139 0.754244 0.472272 106 71 40
0.686987 0.754235 0.472443 107 70 41
0.66879 0.759425 0.466415 106 70 39
0.665016 0.760775 0.464814 103 69 39
0.631369 0.765771 0.459842 106 72 42
0.620706 0.768623 0.456573 105 71 42
0.614123 0.769389 0.455858 107 72 43
0.610736 0.769992 0.455245 108 73 42
0.590708 0.773054 0.452146 108 73 42
0.584104 0.773949 0.451295 106 72 41
0.560529 0.778304 0.446663 106 71 41
0.531121 0.782163 0.442986 109 78 44
0.521286 0.783612 0.441555 120 83 49
0.483088 0.787016 0.438899 105 69 40
0.457838 0.789059 0.437434 104 68 38
0.451982 0.788434 0.438558 105 71 40
0.448873 0.788589 0.43849 109 74 42
0.436354 0.78946 0.437945 114 78 46
0.427 0.790056 0.437639 107 74 43
0.423829 0.790403 0.437332 108 75 43
0.411298 0.791427 0.436583 106 73 42
0.392954 0.791847 0.436924 104 70 40
0.380905 0.791687 0.437741 103 71 41
0.374953 0.791417 0.438388 100 68 38
0.368938 0.79133 0.438797 102 71 40
0.357445 0.789657 0.441589 101 66 37
0.35465 0.789016 0.442577 101 67 40
0.351666 0.788912 0.442849 102 69 39
0.339496 0.789195 0.443087 93 63 36
0.333507 0.789077 0.44353 95 64 36
0.330528 0.788975 0.443837 95 64 37
0.318842 0.787901 0.445812 94 62 35
0.304183 0.78673 0.448094 90 59 33
0.272138 0.783591 0.453849 90 59 32
0.26046 0.782549 0.455824 96 61 34
0.249187 0.780208 0.459502 97 63 35
0.22907 0.777337 0.464304 94 60 31
0.202597 0.775722 0.467777 91 60 36
0.190979 0.774525 0.469923 88 56 32
0.185227 0.773731 0.471285 91 57 31
0.16459 0.77277 0.473567 88 56 29
0.15876 0.772268 0.47452 80 51 27
0.156009 0.771416 0.47578 79 51 26
0.147434 0.770028 0.478062 83 52 26
0.144453 0.770028 0.478198 84 52 25
0.132696 0.76941 0.479628 84 53 27
0.129815 0.769039 0.480241 81 51 27
0.127211 0.767596 0.482285 81 51 26
0.124331 0.767214 0.482966 81 50 25
0.121727 0.76576 0.485009 83 51 26
0.11387 0.761509 0.491037 82 52 26
0.108337 0.759799 0.493591 81 51 28
0.094273 0.75639 0.498835 83 52 26
0.082709 0.754902 0.501389 79 50 24
0.076928 0.754158 0.502649 78 48 24
0.05738 0.748562 0.511061 81 50 26
0.051957 0.74621 0.514467 82 51 27
0.037818 0.742812 0.519677 79 51 26
0.029413 0.740374 0.523355 79 51 27
0.026672 0.739267 0.524955 87 53 27
0.022377 0.731526 0.535444 84 54 27
0.940867 0.661219 0.578251 100 66 36
0.935081 0.665673 0.572632 99 67 37
0.929762 0.669307 0.568069 100 65 35
0.922243 0.670923 0.566298 94 63 35
0.912465 0.676705 0.559112 96 63 35
0.899725 0.681934 0.552778 97 65 37
0.829406 0.709698 0.519404 105 67 36
0.825357 0.711252 0.517566 101 65 34
0.789568 0.72436 0.501934 98 64 35
0.771008 0.72932 0.496247 94 62 32
0.767232 0.730461 0.494919 96 63 33
0.748325 0.736341 0.48804 96 64 35
0.704739 0.747521 0.475371 104 69 38
0.690633 0.750575 0.472 105 70 40
0.687604 0.750303 0.472511 106 70 41
0.577142 0.773067 0.447753 107 71 40
0.573941 0.7733 0.447617 108 71 39
0.502327 0.782282 0.439239 102 68 39
0.482695 0.785377 0.436106 104 69 39
0.460964 0.786244 0.436038 102 67 38
0.442015 0.787946 0.43471 108 74 43
0.438911 0.788101 0.434676 110 76 43
0.411185 0.7891 0.43471 104 72 41
0.408059 0.789347 0.43454 105 72 41
0.402073 0.789135 0.435119 110 76 44
0.392934 0.789268 0.435391 104 72 40
0.389891 0.789309 0.435493 107 74 43
0.360136 0.787949 0.438762 102 67 38
0.3394 0.786824 0.441283 98 68 41
0.313003 0.784694 0.445437 99 67 37
0.307106 0.784324 0.446221 92 60 34
0.286467 0.783071 0.448911 97 64 35
0.283582 0.782699 0.449524 98 63 34
0.280754 0.78215 0.450409 95 61 33
0.277902 0.781675 0.451192 93 60 33
0.254725 0.779012 0.455858 97 62 34
0.246186 0.77752 0.458276 99 64 36
0.243437 0.776703 0.459502 98 63 34
0.231645 0.77604 0.460966 95 60 33
0.225845 0.7754 0.46209 96 62 35
0.202417 0.77363 0.465598 91 59 32
0.182406 0.770406 0.470876 95 61 32
0.179481 0.770179 0.471319 95 60 33
0.161741 0.769539 0.473056 88 55 30
0.144789 0.766012 0.478573 80 50 25
0.139249 0.764401 0.480991 84 53 28
0.136022 0.765332 0.479935 85 53 27
0.129915 0.76589 0.479492 80 51 26
0.127326 0.764388 0.481604 82 51 28
0.124673 0.763123 0.483409 81 50 27
0.116509 0.760077 0.48787 81 51 26
0.113597 0.759804 0.488381 83 51 27
0.110851 0.758875 0.489743 80 51 26
0.105461 0.756586 0.493046 83 52 27
0.099425 0.75688 0.492978 80 50 26
0.091204 0.753947 0.497269 81 51 25
0.077141 0.750448 0.502615 76 47 24
0.07399 0.751169 0.501832 78 48 24
0.071113 0.750736 0.502547 79 51 25
0.060166 0.746572 0.508609 81 50 24
0.054544 0.745096 0.510857 80 50 25
0.029607 0.736608 0.523355 80 51 27
0.024441 0.732917 0.528531 85 53 26
0.92998 0.666207 0.566877 100 66 36
0.905113 0.675385 0.555945 98 63 34
0.89552 0.680935 0.549066 97 64 35
0.878765 0.687657 0.540961 105 69 38
0.84961 0.69948 0.52676 97 63 33
0.808489 0.716203 0.506634 97 63 34
0.804668 0.717359 0.505272 96 62 34
0.789436 0.721968 0.499925 102 67 37
0.781845 0.724265 0.497269 98 65 36
0.762951 0.729984 0.490628 98 64 35
0.755497 0.732109 0.488176 97 65 36
0.751757 0.733209 0.486916 100 65 36
0.737424 0.736416 0.483375 97 64 34
0.733684 0.737548 0.482046 99 65 35
0.729952 0.738679 0.480718 100 67 36
0.726276 0.7397 0.47956 107 72 40
0.715739 0.741786 0.477313 103 70 40
0.712077 0.742804 0.476155 103 69 39
0.708367 0.743928 0.474861 103 68 37
0.693641 0.748262 0.46982 108 73 41
0.689969 0.749343 0.468594 106 72 41
0.679898 0.75063 0.467369 103 69 40
0.669024 0.753673 0.463895 106 70 39
0.645087 0.757902 0.459468 104 69 40
0.641545 0.758796 0.458446 105 70 40
0.60411 0.765638 0.451261 106 71 41
0.600726 0.766249 0.450614 107 72 42
0.597651 0.766168 0.450852 106 71 42
0.593928 0.767558 0.449218 109 75 44
0.587055 0.769058 0.447549 111 74 43
0.573809 0.770984 0.445676 108 71 40
0.570444 0.771602 0.445029 108 70 38
0.524318 0.77848 0.438184 120 83 47
0.515158 0.778323 0.438865 107 71 41
0.50556 0.779257 0.438081 100 65 35
0.489274 0.781617 0.435766 101 64 35
0.473411 0.783034 0.434676 106 69 39
0.464084 0.783448 0.434608 101 67 38
0.441727 0.786068 0.432258 107 74 43
0.438548 0.786424 0.431952 109 75 43
0.430018 0.78486 0.434437 108 74 43
0.423973 0.784761 0.43488 105 73 42
0.420778 0.785175 0.434472 105 72 42
0.417585 0.785588 0.434097 110 75 43
0.414394 0.786 0.433688 107 74 43
0.392953 0.786581 0.433995 103 71 41
0.38991 0.786621 0.434097 109 76 44
0.380683 0.787026 0.434029 105 72 41
0.354328 0.784641 0.43849 105 71 40
0.330509 0.783719 0.440908 99 69 39
0.321791 0.78277 0.442611 95 64 35
0.315992 0.782097 0.443769 92 60 33
0.275055 0.778505 0.45058 93 60 32
0.272164 0.778151 0.451192 94 61 34
0.249081 0.775169 0.456301 98 62 34
0.243381 0.77419 0.457867 97 62 33
0.234657 0.773291 0.459502 95 60 34
0.23162 0.773425 0.459468 94 61 33
0.219665 0.773333 0.460217 95 62 34
0.193944 0.76917 0.466994 90 58 33
0.182525 0.767254 0.470127 95 60 31
0.173559 0.767254 0.47057 96 61 33
0.147847 0.762982 0.477517 83 53 28
0.139367 0.761195 0.48031 84 53 29
0.130129 0.762305 0.479288 80 51 27
0.110415 0.757821 0.486235 81 51 27
0.102695 0.752927 0.493114 79 51 26
0.096893 0.752269 0.494272 80 50 25
0.085679 0.749335 0.498699 82 51 26
0.080092 0.747763 0.501083 77 48 23
0.071009 0.748358 0.500742 78 49 25
0.066445 0.74239 0.508881 81 49 25
0.049359 0.738833 0.514467 85 53 28
0.046505 0.738264 0.515352 82 52 26
0.040515 0.738375 0.515522 84 53 28
0.032407 0.734579 0.520937 84 54 29
0.029805 0.732838 0.523389 80 52 27
0.026934 0.732318 0.524206 81 51 26
0.021652 0.729137 0.528701 87 54 25
0.971196 0.637318 0.597748 102 70 39
0.929932 0.663591 0.565038 101 67 35
0.925951 0.664805 0.563608 96 63 34
0.896048 0.677264 0.548624 98 64 35
0.83685 0.702543 0.51811 98 63 33
0.817354 0.708877 0.510686 101 64 35
0.805131 0.713801 0.504795 97 63 35
0.792715 0.719196 0.498256 98 65 36
0.781548 0.722206 0.494851 98 65 36
0.778041 0.722796 0.494238 100 67 37
0.774141 0.724171 0.492603 100 66 36
0.749234 0.729218 0.487189 96 63 34
0.737345 0.733934 0.481535 100 65 36
0.71938 0.738183 0.476802 103 68 38
0.648468 0.754741 0.458412 106 71 41
0.620355 0.761539 0.450818 104 68 38
0.613794 0.762259 0.450205 107 72 42
0.603967 0.763338 0.449251 106 71 41
0.587358 0.765747 0.446902 110 76 45
0.580543 0.767138 0.445403 106 71 41
0.577126 0.767863 0.44462 108 72 41
0.566973 0.769852 0.442475 108 72 41
0.550555 0.772096 0.440329 112 75 43
0.524216 0.776106 0.436345 116 79 45
0.520941 0.776589 0.435868 113 75 42
0.518 0.776265 0.436447 107 71 38
0.505377 0.777086 0.436004 96 61 32
0.502187 0.777382 0.435766 97 62 30
0.476409 0.780561 0.432837 103 67 38
0.470227 0.780735 0.432905 102 68 39
0.46091 0.781133 0.432871 98 66 39
0.438645 0.783544 0.430794 108 75 43
0.435512 0.783781 0.430623 109 75 44
0.429692 0.783088 0.431815 109 75 43
0.392926 0.784018 0.432428 107 74 44
0.389836 0.784186 0.43236 108 75 43
0.37749 0.784855 0.432122 101 69 39
0.365767 0.783823 0.434063 101 68 40
0.351133 0.782493 0.436549 101 68 38
0.348182 0.782301 0.436958 100 68 38
0.289236 0.778455 0.444995 91 60 33
0.275052 0.775835 0.449183 91 59 31
0.266147 0.775506 0.450069 96 62 34
0.263387 0.774732 0.451227 93 59 32
0.23743 0.771339 0.457016 97 62 33
0.231505 0.771105 0.457629 93 59 32
0.222622 0.770755 0.458548 95 62 35
0.205251 0.768744 0.462056 90 58 33
0.185469 0.764688 0.468424 90 58 31
0.182583 0.764316 0.469071 92 59 31
0.167725 0.764012 0.470229 85 53 28
0.164809 0.763752 0.470706 86 54 30
0.148468 0.757898 0.479288 85 54 28
0.13618 0.75921 0.478164 85 53 27
0.133267 0.758942 0.478675 82 52 27
0.127638 0.75765 0.48065 81 52 28
0.124909 0.756667 0.48208 82 51 27
0.122034 0.756247 0.482795 81 51 28
0.110285 0.755556 0.484294 79 50 26
0.108649 0.750195 0.49148 78 49 25
0.105757 0.749823 0.492126 77 48 25
0.102871 0.749427 0.492773 78 48 25
0.099716 0.75012 0.492024 77 49 25
0.094192 0.748319 0.49468 80 51 26
0.088565 0.746929 0.496792 82 51 25
0.082695 0.746532 0.497643 79 48 24
0.077109 0.744953 0.499993 78 48 24
0.074215 0.744581 0.50064 78 48 24
0.068771 0.742373 0.503841 78 49 25
0.063316 0.740183 0.507008 79 51 25
0.060423 0.739793 0.507655 79 50 27
0.055133 0.736843 0.511844 81 52 25
0.038029 0.73328 0.517429 80 52 26
0.03256 0.731019 0.520699 85 55 29
0.968366 0.633641 0.59739 101 69 39
0.922719 0.661952 0.562245 101 66 37
0.910368 0.666397 0.557001 97 64 35
0.865517 0.688736 0.529723 103 67 37
0.845061 0.696608 0.520358 94 61 33
0.825969 0.702081 0.514058 103 66 35
0.809218 0.709467 0.505136 97 63 34
0.80599 0.709465 0.505306 96 62 34
0.801777 0.7114 0.502956 97 65 35
0.793365 0.71526 0.49829 97 64 35
0.771672 0.720052 0.493046 100 66 36
0.762784 0.725029 0.486882 101 67 36
0.759205 0.725789 0.486065 99 66 36
0.74923 0.726577 0.48552 99 64 34
0.71566 0.736677 0.473873 105 69 39
0.693489 0.74332 0.466211 105 69 38
0.689764 0.744516 0.464814 99 67 39
0.686529 0.744684 0.464747 102 69 41
0.683188 0.745078 0.464372 102 70 40
0.634467 0.755341 0.45327 106 69 37
0.630922 0.756261 0.452214 105 68 37
0.623676 0.75847 0.44966 108 71 42
0.593867 0.762453 0.445914 110 75 46
0.570222 0.766877 0.441249 108 72 42
0.511673 0.774085 0.434642 102 65 35
0.467165 0.77813 0.431543 96 64 38
0.45441 0.779531 0.430351 100 68 38
0.45134 0.779585 0.430419 102 69 39
0.448132 0.780001 0.430045 100 69 40
0.445001 0.780219 0.429908 98 69 40
0.408144 0.78122 0.430419 108 76 43
0.398983 0.78139 0.430657 107 74 42
0.313082 0.776467 0.441487 96 66 38
0.272033 0.773202 0.447889 93 60 32
0.263269 0.772424 0.449354 95 59 33
0.254612 0.771309 0.451261 99 63 34
0.248848 0.770539 0.452555 99 62 34
0.240207 0.769369 0.454564 96 61 34
0.237168 0.769504 0.45453 98 62 33
0.222585 0.768172 0.457016 92 59 33
0.2197 0.767801 0.457663 93 60 34
0.202406 0.765516 0.461545 93 61 33
0.199617 0.764811 0.462635 93 59 33
0.173579 0.761712 0.468016 96 61 33
0.150794 0.757619 0.474588 87 55 29
0.136408 0.755576 0.478028 84 51 26
0.127699 0.754643 0.479696 80 51 25
0.122052 0.753404 0.481604 80 52 28
0.116233 0.752829 0.482659 81 51 26
0.113041 0.753665 0.48174 77 48 26
0.102542 0.747959 0.489811 76 47 24
0.097075 0.745932 0.49274 82 51 25
0.091415 0.74467 0.494715 78 49 25
0.08242 0.744868 0.494885 79 49 25
0.077218 0.741677 0.49938 76 48 24
0.052409 0.732849 0.512287 81 51 26
0.046393 0.733059 0.512321 74 48 25
0.043508 0.732613 0.51307 80 50 25
0.027292 0.724913 0.52407 79 50 24
0.915731 0.659912 0.559998 98 65 36
0.910671 0.663143 0.556013 97 65 36
0.853629 0.690023 0.523389 95 62 33
0.82993 0.698031 0.514024 101 67 35
0.817548 0.703181 0.50786 100 64 33
0.759552 0.722451 0.485316 100 67 36
0.712324 0.734383 0.471966 103 68 37
0.690204 0.740954 0.464406 102 68 40
0.686607 0.741889 0.46335 102 69 41
0.672631 0.744803 0.460217 106 70 41
0.655595 0.747637 0.457323 102 69 41
0.641013 0.752085 0.45218 103 67 38
0.633832 0.754115 0.449865 106 68 38
0.623615 0.755983 0.447923 111 73 41
0.620098 0.756865 0.446936 111 73 42
0.607083 0.758088 0.445982 111 74 44
0.593847 0.759876 0.444279 108 74 44
0.590474 0.760482 0.443667 110 76 45
0.527261 0.770941 0.433041 112 75 42
0.523962 0.771478 0.432496 109 73 41
0.517784 0.771548 0.432701 104 69 37
0.502264 0.771948 0.432973 89 54 29
0.496088 0.772047 0.433144 96 61 33
0.490062 0.771783 0.433791 101 67 38
0.479678 0.774782 0.430351 108 69 38
0.470375 0.775111 0.430385 101 66 37
0.460988 0.775682 0.430113 101 69 39
0.438845 0.777764 0.428478 103 72 42
0.426371 0.778572 0.428069 105 71 42
0.371459 0.77953 0.429568 104 72 41
0.330553 0.775619 0.436787 99 67 36
0.319021 0.774062 0.439444 98 65 38
0.316073 0.773867 0.439852 98 66 38
0.301485 0.772442 0.442475 106 71 42
0.298581 0.772119 0.443019 106 71 40
0.240098 0.767031 0.452725 94 60 33
0.225492 0.765763 0.455109 87 55 29
0.222539 0.76562 0.455449 89 57 31
0.216761 0.764902 0.456709 94 61 33
0.196624 0.762091 0.461443 90 58 33
0.182528 0.759045 0.466177 93 59 32
0.162154 0.757049 0.46982 88 56 30
0.145041 0.754041 0.47469 85 53 26
0.139552 0.752206 0.477381 79 50 25
0.133693 0.751775 0.478232 81 52 27
0.113552 0.74886 0.483102 81 50 25
0.108519 0.74513 0.488278 76 48 24
0.105627 0.744758 0.488925 76 48 23
0.097145 0.742844 0.491888 78 49 24
0.080102 0.739278 0.497473 76 48 24
0.074788 0.736515 0.501389 77 47 24
0.060987 0.731672 0.508473 79 49 25
0.04358 0.729432 0.512321 79 49 24
0.040753 0.728727 0.513377 80 49 24
0.038114 0.727168 0.51559 79 50 24
0.024387 0.70772 0.541949 83 52 25
0.924572 0.653145 0.563199 100 66 36
0.906792 0.661504 0.553085 96 64 34
0.901748 0.664728 0.5491 98 65 35
0.871756 0.677779 0.533401 102 67 37
