ply
format ascii 1.0
element vertex 1339
property double x
property double y
property double z
property uchar red
property uchar green
property uchar blue
end_header
0.587236 0.310184 0.798678 90 58 29
0.606989 0.309188 0.79832 92 57 26
0.622773 0.308238 0.795623 92 57 27
0.629822 0.307713 0.792844 96 60 30
0.686142 0.302172 0.749475 89 61 33
0.696177 0.301299 0.743543 84 57 31
0.719868 0.299703 0.736807 77 51 27
0.734164 0.298734 0.732656 81 55 31
0.736749 0.298498 0.730953 82 57 32
0.024295 0.315565 0.48174 100 79 56
0.071001 0.315667 0.519439 63 36 16
0.073314 0.315682 0.521448 65 38 16
0.075617 0.315604 0.522027 63 36 16
0.100941 0.314234 0.520392 22 13 6
0.147647 0.318999 0.630478 50 28 13
0.160725 0.319497 0.648326 57 34 15
0.169495 0.319473 0.654742 57 35 17
0.210624 0.31962 0.688848 67 41 18
0.277943 0.320248 0.750644 44 26 10
0.283782 0.320716 0.76242 47 27 12
0.288013 0.320623 0.764238 56 33 14
0.292251 0.320518 0.765883 66 40 16
0.300542 0.320494 0.771911 63 37 18
0.328135 0.319644 0.780016 77 47 22
0.336855 0.31916 0.779233 84 53 26
0.34119 0.318943 0.779216 83 51 23
0.362935 0.317816 0.77849 90 58 30
0.376415 0.316814 0.773334 87 56 29
0.389713 0.315987 0.770743 78 51 26
0.452637 0.314355 0.793818 79 49 21
0.457408 0.313877 0.790062 90 59 32
0.47395 0.312347 0.779035 92 62 32
0.481079 0.311688 0.774284 79 55 30
0.48594 0.311192 0.770331 67 46 26
0.506806 0.310699 0.778688 73 48 24
0.538062 0.309909 0.790399 71 46 24
0.559136 0.309224 0.795909 85 55 29
0.565399 0.309043 0.797902 93 60 30
0.567428 0.309011 0.798954 91 58 30
0.5738 0.308775 0.80017 89 57 29
0.593799 0.307652 0.798075 90 57 28
0.598251 0.307402 0.797605 88 56 29
0.611491 0.30671 0.796996 88 56 27
0.62504 0.305888 0.794619 94 59 29
0.627398 0.305709 0.793641 92 59 28
0.683869 0.300057 0.749172 90 62 34
0.761603 0.294285 0.719116 83 56 30
0.049955 0.313093 0.499414 47 27 11
0.052232 0.3128 0.496656 40 24 10
0.061598 0.313096 0.508371 24 13 6
0.082429 0.31311 0.524581 54 30 12
0.096231 0.312338 0.523287 29 14 8
0.098535 0.312156 0.522265 21 11 5
0.14978 0.316682 0.631094 50 29 13
0.165027 0.317227 0.651163 61 37 14
0.167208 0.317253 0.653223 62 38 15
0.182403 0.317455 0.667993 61 36 14
0.188895 0.317504 0.673724 63 38 17
0.193195 0.317574 0.6781 69 42 20
0.203996 0.317559 0.686144 70 43 19
0.227701 0.317362 0.701291 61 38 19
0.275937 0.317863 0.745944 46 26 12
0.30269 0.318146 0.770777 60 35 15
0.310979 0.318101 0.776427 66 40 16
0.321777 0.317589 0.776821 67 41 19
0.33896 0.316864 0.778824 86 54 27
0.354134 0.31611 0.778851 90 57 28
0.362932 0.315579 0.777414 89 57 28
0.37857 0.314483 0.772524 82 53 27
0.409866 0.3124 0.764409 60 38 19
0.41623 0.312211 0.766367 58 38 17
0.418264 0.312209 0.767882 60 38 17
0.424001 0.312443 0.775854 63 39 19
0.434026 0.312487 0.78417 73 46 23
0.452549 0.312193 0.793764 78 49 23
0.471678 0.310282 0.778981 97 66 36
0.515324 0.308176 0.779832 72 48 25
0.569335 0.30683 0.800187 88 55 28
0.576068 0.306419 0.798991 87 57 29
0.593845 0.305423 0.79718 90 57 27
0.598031 0.305296 0.798402 94 60 29
0.739385 0.293731 0.728041 75 52 29
0.751584 0.292829 0.723451 80 55 29
0.766966 0.291491 0.714569 90 60 34
0.047588 0.31111 0.502922 53 32 14
0.052151 0.310568 0.498154 29 19 8
0.096133 0.310079 0.524138 35 18 8
0.107621 0.309897 0.530098 28 15 6
0.171474 0.315061 0.657153 51 31 15
0.204007 0.315133 0.682983 68 43 20
0.214832 0.315015 0.68942 66 40 18
0.216972 0.315029 0.691259 67 40 15
0.284056 0.315845 0.754611 43 24 12
0.325972 0.315256 0.777442 75 44 19
0.338899 0.314675 0.778415 84 54 27
0.341042 0.314589 0.778735 81 52 25
0.358478 0.31365 0.777653 86 56 27
0.362911 0.313356 0.776549 85 54 27
0.367306 0.313099 0.775963 83 53 27
0.385085 0.311931 0.771673 80 53 29
0.396458 0.311029 0.766564 76 50 25
0.409815 0.310194 0.763969 58 38 19
0.416267 0.309945 0.765063 60 37 18
0.471605 0.3081 0.778804 96 65 37
0.487983 0.306709 0.770021 65 44 25
0.495742 0.306859 0.778136 62 41 23
0.498195 0.306599 0.776035 63 41 22
0.517376 0.30592 0.780166 69 46 24
0.608783 0.302636 0.799032 88 55 27
0.672606 0.296165 0.748672 53 34 17
0.739678 0.291361 0.72607 75 52 28
0.757387 0.289864 0.716626 81 53 29
0.769871 0.288876 0.711004 90 60 31
0.773215 0.288368 0.705804 91 60 32
0.030969 0.308252 0.482421 96 77 55
0.047462 0.308638 0.500674 57 34 15
0.068357 0.3084 0.512832 20 9 5
0.107533 0.307422 0.527612 27 14 6
0.160469 0.312695 0.646885 57 34 15
0.20601 0.313037 0.686355 69 42 20
0.233985 0.312842 0.704496 59 36 15
0.276069 0.313114 0.740264 48 28 13
0.304784 0.313593 0.769071 50 30 14
0.3367 0.312567 0.777619 75 45 21
0.351898 0.311792 0.777373 83 52 27
0.402776 0.308634 0.768015 77 51 26
0.416155 0.307783 0.765243 63 38 20
0.420232 0.307775 0.768175 65 40 17
0.422172 0.307839 0.770579 64 39 18
0.454692 0.30767 0.792378 84 52 25
0.500493 0.304201 0.774441 54 36 18
0.504719 0.304074 0.775684 58 39 21
0.506919 0.303961 0.77562 66 44 24
0.527509 0.303599 0.785547 72 46 23
0.544028 0.303249 0.792616 76 48 23
0.571639 0.302247 0.798126 82 51 24
0.586653 0.301629 0.800016 85 53 24
0.606864 0.300411 0.796761 86 54 27
0.668406 0.294031 0.746646 52 34 18
0.742433 0.288798 0.723069 76 52 29
0.056601 0.305811 0.500095 33 19 10
0.072875 0.305909 0.513717 52 29 13
0.075232 0.306441 0.523389 56 30 13
0.077521 0.306173 0.521107 60 34 15
0.105142 0.305053 0.525057 19 12 5
0.114361 0.304512 0.523865 38 21 8
0.145261 0.309092 0.615214 55 31 14
0.151825 0.309468 0.625717 53 30 13
0.197312 0.310759 0.678951 67 41 18
0.21021 0.310848 0.68991 68 42 20
0.216865 0.310459 0.689089 67 41 19
0.259625 0.310285 0.718414 30 18 8
0.311456 0.310834 0.765253 53 32 13
0.32589 0.310835 0.776014 62 37 16
0.336629 0.310386 0.777326 68 41 17
0.343115 0.310077 0.777557 71 43 21
0.349739 0.309646 0.776076 82 52 27
0.376119 0.308087 0.772476 87 58 31
0.442076 0.305817 0.787647 70 42 18
0.452423 0.305621 0.792405 82 50 22
0.456894 0.305325 0.791312 92 58 28
0.473761 0.303555 0.777465 82 58 32
0.488092 0.302179 0.767586 63 44 25
0.506958 0.301711 0.774581 66 44 22
0.573895 0.299894 0.797033 81 51 24
0.582587 0.299487 0.797401 79 49 23
0.586422 0.299532 0.800902 79 49 22
0.588732 0.299364 0.800102 82 52 25
0.600211 0.298564 0.796679 84 53 26
0.604742 0.298277 0.795739 85 53 26
0.661301 0.292294 0.748434 83 54 28
0.663709 0.292107 0.747425 65 42 23
0.747783 0.28599 0.718404 81 54 28
0.063506 0.303654 0.507792 30 18 7
0.072758 0.303389 0.51072 51 30 13
0.075083 0.30349 0.513922 54 31 13
0.082044 0.303993 0.526522 56 32 13
0.088938 0.303594 0.525739 52 29 13
0.105039 0.302842 0.526556 20 11 6
0.109657 0.302396 0.523389 24 13 5
0.216798 0.308197 0.688361 69 42 19
0.2253 0.308347 0.696861 66 41 19
0.242335 0.308413 0.710459 51 31 13
0.255298 0.308086 0.71522 61 37 15
0.257436 0.308059 0.716415 52 31 12
0.26383 0.307996 0.720209 28 15 8
0.269914 0.308321 0.729513 45 26 10
0.302763 0.309008 0.763935 47 25 10
0.332045 0.308593 0.779444 67 40 17
0.334322 0.308378 0.777956 71 42 16
0.338698 0.308123 0.777417 69 41 18
0.343156 0.307792 0.775837 71 41 20
0.345181 0.307816 0.777683 71 44 20
0.349647 0.307483 0.776069 76 49 23
0.362922 0.306618 0.773099 80 50 25
0.373905 0.305983 0.771839 82 52 25
0.385066 0.305219 0.768795 84 55 28
0.402889 0.304063 0.764882 80 52 26
0.416157 0.303297 0.763346 61 38 19
0.42017 0.30334 0.766942 64 40 19
0.441956 0.303674 0.787896 68 42 20
0.45379 0.303818 0.798726 86 55 27
0.45936 0.30281 0.787947 100 65 32
0.485884 0.300062 0.766925 68 47 25
0.488239 0.299856 0.765614 65 44 23
0.506998 0.299459 0.773539 69 45 24
0.509108 0.299398 0.774182 67 45 23
0.546264 0.298685 0.790931 82 52 27
0.600349 0.296287 0.795211 72 46 23
0.686538 0.288544 0.744146 73 47 26
0.715764 0.286252 0.731747 76 51 29
0.730208 0.285206 0.72689 78 54 30
0.776471 0.281061 0.69966 95 62 32
0.779308 0.280738 0.696977 96 62 33
0.070351 0.301168 0.510482 59 36 15
0.077313 0.301375 0.518621 57 34 16
0.086543 0.301483 0.526964 56 31 13
0.091136 0.300879 0.521516 53 29 12
0.111866 0.299913 0.52264 25 13 5
0.149485 0.30469 0.620067 53 30 13
0.16468 0.305643 0.645145 58 34 16
0.219042 0.305636 0.684976 67 42 21
0.276011 0.306288 0.73631 51 29 12
0.288426 0.306472 0.748106 50 29 13
0.315615 0.306281 0.765246 55 32 14
0.391682 0.302588 0.766963 85 56 29
0.416025 0.30115 0.763741 61 38 20
0.425962 0.301319 0.773464 62 37 17
0.454416 0.301191 0.792354 82 53 27
0.456806 0.300941 0.790447 92 59 29
0.461743 0.300345 0.785342 101 67 37
0.468595 0.29982 0.782669 86 57 33
0.563392 0.295794 0.792855 77 48 23
0.569555 0.295672 0.795559 78 47 21
0.593597 0.29449 0.795759 68 41 17
0.598215 0.294157 0.794251 68 42 19
0.60266 0.293909 0.793869 72 45 21
0.665782 0.287576 0.747235 71 48 24
0.670533 0.287229 0.745617 87 59 30
0.675163 0.286937 0.744711 84 57 32
0.689813 0.285746 0.737955 74 49 27
0.758374 0.280411 0.709839 91 61 33
0.76133 0.280032 0.706451 92 61 33
0.079524 0.299062 0.520324 57 33 14
0.102539 0.298424 0.52785 37 19 8
0.229448 0.303839 0.698662 63 40 18
0.237897 0.304 0.707142 61 38 19
0.246486 0.303885 0.711739 39 24 12
0.330768 0.30332 0.764845 56 34 14
0.334747 0.303463 0.7698 58 34 16
0.349654 0.302982 0.773654 70 42 20
0.351973 0.302738 0.771815 69 41 19
0.35415 0.302627 0.771778 68 40 17
0.360468 0.30248 0.77424 73 44 20
0.36288 0.30216 0.771369 72 44 20
0.371507 0.301789 0.772248 77 47 23
0.400712 0.299674 0.762835 79 50 26
0.413881 0.298982 0.762358 56 36 17
0.431987 0.299126 0.77755 62 38 18
0.434054 0.299097 0.778627 65 42 21
0.448403 0.298953 0.786929 80 49 22
0.456617 0.298845 0.791291 91 58 29
0.476256 0.296564 0.772503 81 56 33
0.478832 0.296211 0.769275 95 64 37
0.509155 0.294911 0.772367 62 40 20
0.550633 0.294037 0.78965 83 52 25
0.552709 0.293989 0.79044 86 54 26
0.573975 0.293218 0.794629 74 46 20
0.59377 0.292192 0.79405 63 40 19
0.598252 0.291925 0.793423 64 40 18
0.614291 0.290834 0.789194 63 39 17
0.672915 0.284806 0.744245 89 60 33
0.761368 0.277743 0.705797 92 61 33
0.763785 0.277573 0.705075 88 59 33
0.11397 0.295221 0.523423 24 11 4
0.192762 0.301512 0.670496 58 36 16
0.19697 0.301812 0.677838 61 36 14
0.227254 0.30156 0.696105 71 44 21
0.267856 0.301307 0.721779 35 20 10
0.272054 0.301342 0.725314 35 20 9
0.274397 0.301034 0.722596 40 24 11
0.275914 0.301804 0.73472 43 25 12
0.300909 0.301935 0.754625 52 31 15
0.330691 0.301135 0.76462 53 31 14
0.347691 0.300644 0.769823 57 33 14
0.358475 0.300179 0.770923 59 36 15
0.371749 0.299335 0.768373 71 43 19
0.389514 0.298192 0.76478 78 51 27
0.405095 0.2972 0.761756 67 44 23
0.409469 0.296981 0.761766 56 36 17
0.423819 0.296925 0.771264 63 38 17
0.435954 0.296953 0.780384 65 42 21
0.478481 0.294199 0.771424 87 60 34
0.494345 0.293113 0.767235 58 39 21
0.515164 0.292687 0.776035 71 45 23
0.52767 0.2924 0.780884 73 48 25
0.533922 0.292252 0.783234 72 45 23
0.559193 0.291487 0.790352 76 49 23
0.567593 0.291237 0.792766 81 50 22
0.571854 0.291079 0.793549 75 45 20
0.580477 0.29071 0.794428 68 40 17
0.601638 0.289016 0.785291 55 33 16
0.608954 0.288338 0.780796 59 38 17
0.61137 0.288124 0.779468 64 40 19
0.751151 0.276371 0.710949 86 57 31
0.769302 0.274691 0.699864 91 60 32
0.081624 0.294193 0.518587 53 29 12
0.106947 0.293504 0.526931 31 15 7
0.170995 0.298882 0.649174 58 33 14
0.17307 0.299235 0.655678 57 33 13
0.175209 0.299375 0.659203 57 33 14
0.18833 0.299265 0.667049 59 35 16
0.21418 0.299524 0.689232 73 46 21
0.237808 0.299435 0.704901 67 44 22
0.248527 0.299331 0.711103 67 41 20
0.274306 0.298838 0.722552 34 21 11
0.356366 0.297977 0.768975 51 31 14
0.35851 0.297897 0.769367 52 30 13
0.391735 0.295803 0.763363 77 49 24
0.411756 0.294548 0.759815 51 32 16
0.446132 0.294675 0.786088 80 49 22
0.463851 0.293606 0.783527 102 68 37
0.475917 0.292314 0.77378 84 57 33
0.487883 0.291128 0.765451 65 45 25
0.515144 0.290469 0.775466 72 46 23
0.517234 0.29042 0.77625 74 46 25
0.565582 0.289037 0.790931 73 44 22
0.586271 0.287557 0.784596 64 40 18
0.663777 0.280846 0.744306 82 55 28
0.670625 0.280446 0.743478 89 61 34
0.672998 0.280272 0.742702 83 57 31
0.689569 0.279094 0.737713 89 60 30
0.694391 0.278723 0.735871 87 59 31
0.71829 0.276995 0.728276 78 52 27
0.725882 0.276311 0.723952 77 52 29
0.761228 0.273247 0.705524 93 61 33
0.224934 0.297121 0.694252 65 41 19
0.233649 0.296872 0.696943 67 42 19
0.250586 0.297093 0.712077 62 39 20
0.256954 0.297098 0.716674 69 43 19
0.267717 0.296854 0.720883 53 31 13
0.30932 0.297278 0.756358 60 35 15
0.315646 0.297175 0.759396 60 36 16
0.322569 0.296431 0.753845 56 35 16
0.358714 0.295456 0.765747 50 28 12
0.38507 0.293976 0.763584 78 51 27
0.398575 0.292995 0.759348 79 52 26
0.403075 0.292677 0.758057 73 46 22
0.415941 0.292227 0.760826 61 39 18
0.44386 0.292624 0.786118 68 42 19
0.465999 0.291291 0.783006 99 67 37
0.468327 0.291085 0.781759 84 57 32
0.536098 0.287703 0.781971 70 43 22
0.538158 0.287668 0.782928 68 44 22
0.548683 0.287359 0.785986 69 45 22
0.55294 0.287208 0.786854 68 42 20
0.597368 0.284731 0.783289 61 39 17
0.652029 0.279425 0.747143 57 38 20
0.694487 0.276427 0.734828 84 57 31
0.70635 0.275591 0.73142 82 56 30
0.711073 0.27527 0.730218 77 53 29
0.753814 0.271552 0.708004 93 62 34
0.773311 0.269332 0.69051 97 64 35
0.088339 0.289243 0.51903 54 31 14
0.203349 0.294781 0.677269 66 41 17
0.298897 0.294999 0.747609 51 30 13
0.382924 0.291801 0.762124 69 44 21
0.385111 0.291689 0.762096 75 49 25
0.389813 0.291191 0.758456 72 45 21
0.396315 0.290911 0.75912 75 47 25
0.398543 0.290768 0.758691 76 49 25
0.409656 0.290085 0.756978 46 30 15
0.503011 0.286036 0.765941 75 48 23
0.505199 0.285932 0.766019 68 42 22
0.517269 0.285939 0.774554 68 43 21
0.542448 0.285277 0.782921 69 44 22
0.602447 0.281946 0.778391 70 44 21
0.656531 0.276936 0.746353 84 56 31
0.728728 0.271423 0.719909 78 54 30
0.749002 0.269617 0.708896 91 60 33
0.111255 0.286341 0.527033 33 18 7
0.118195 0.285647 0.522299 24 13 7
0.175185 0.291904 0.64854 55 31 15
0.17954 0.291982 0.652668 58 33 12
0.183761 0.292398 0.661362 59 34 16
0.198875 0.29267 0.675679 66 41 19
0.21616 0.292672 0.687799 67 41 17
0.226888 0.292711 0.695846 69 43 20
0.276208 0.292164 0.722773 38 23 9
0.303039 0.292751 0.749612 52 30 15
0.342244 0.290869 0.750981 58 35 15
0.343809 0.291372 0.759007 57 35 14
0.352754 0.29072 0.756252 57 33 13
0.381052 0.289386 0.757567 61 38 18
0.394135 0.28876 0.758027 73 45 22
0.405517 0.287857 0.753487 49 31 13
0.461041 0.287459 0.786582 101 67 36
0.465793 0.286973 0.783176 100 68 38
0.470677 0.286405 0.778732 90 61 35
0.477955 0.285601 0.772687 83 58 33
0.489981 0.284362 0.763942 69 48 26
0.502978 0.283819 0.765461 75 48 25
0.530029 0.283287 0.776876 69 43 20
0.532276 0.283146 0.776481 66 41 19
0.656444 0.274729 0.746295 84 56 29
0.670832 0.273601 0.740689 91 63 35
0.684901 0.272639 0.737148 86 58 30
0.704054 0.271208 0.730647 79 55 30
0.749625 0.267084 0.705272 90 61 32
0.106555 0.28424 0.526726 49 28 11
0.185884 0.290074 0.661584 59 35 17
0.237646 0.290259 0.700028 65 41 20
0.250451 0.290266 0.709012 67 44 22
0.269506 0.290339 0.723223 59 35 14
0.30108 0.290309 0.744684 49 29 13
0.348166 0.288891 0.757884 56 33 15
0.400957 0.285964 0.754342 51 30 13
0.443629 0.286102 0.785673 64 40 19
0.494339 0.281924 0.763489 63 43 23
0.515754 0.281171 0.767926 67 42 20
0.562988 0.279396 0.77612 58 37 18
0.589586 0.27797 0.774894 66 43 22
0.706313 0.268831 0.730071 81 55 29
0.708588 0.268707 0.729932 80 55 30
0.733712 0.266465 0.716531 83 55 29
0.751938 0.264676 0.704588 96 62 33
0.085739 0.282367 0.518417 51 29 11
0.094958 0.281719 0.515965 51 30 13
0.097264 0.281692 0.517225 50 28 11
0.099562 0.281958 0.522401 49 27 12
0.101863 0.281903 0.523219 46 26 11
0.115682 0.28126 0.524036 28 14 5
0.122627 0.280631 0.52029 33 18 7
0.177151 0.287542 0.65151 53 32 14
0.181476 0.287695 0.65655 58 35 14
0.233234 0.288113 0.697869 67 42 21
0.239671 0.288089 0.701966 67 43 20
0.292927 0.287723 0.733647 40 26 12
0.305361 0.2879 0.744595 54 33 16
0.326596 0.287468 0.753327 58 35 17
0.374892 0.284836 0.750807 57 35 17
0.413802 0.283291 0.756532 54 34 17
0.419874 0.283353 0.761531 64 40 20
0.437536 0.283878 0.780731 57 37 18
0.456143 0.283602 0.789708 95 62 32
0.458527 0.283347 0.787883 98 66 35
0.482658 0.280695 0.768458 72 49 29
0.487497 0.280177 0.764749 80 56 33
0.492243 0.279727 0.761895 65 46 25
0.511787 0.278889 0.763891 68 43 22
0.521955 0.278842 0.770188 64 39 19
0.567736 0.276753 0.773106 61 40 20
0.605088 0.274929 0.773842 79 49 25
0.703913 0.266751 0.730364 81 55 29
0.739075 0.26361 0.711756 89 58 30
0.090245 0.279467 0.513717 53 31 11
0.09486 0.279355 0.515386 52 29 12
0.104074 0.279333 0.52138 51 27 11
0.120218 0.27846 0.520699 22 13 5
0.170642 0.28476 0.639761 55 30 12
0.185678 0.285665 0.66219 57 34 14
0.194357 0.285748 0.669242 61 37 15
0.224558 0.285898 0.691885 65 41 19
0.263124 0.285714 0.715758 61 37 15
0.364151 0.282926 0.747204 58 35 16
0.38308 0.282638 0.756205 51 30 14
0.403378 0.281146 0.749979 37 22 11
0.41581 0.281072 0.757441 52 34 17
0.417744 0.281165 0.760002 56 36 17
0.429856 0.281292 0.769929 63 40 21
0.439368 0.281791 0.783081 54 37 17
0.458464 0.281164 0.78762 91 61 32
0.487436 0.277976 0.76448 80 56 31
0.489925 0.277673 0.762103 79 55 32
0.507388 0.27687 0.763152 71 45 25
0.557171 0.274825 0.769398 58 36 17
0.589199 0.273717 0.776175 71 46 20
0.59414 0.273211 0.772728 74 46 22
0.605613 0.272426 0.769943 75 48 24
0.647391 0.268492 0.745379 88 59 31
0.65204 0.268177 0.744289 87 57 31
0.689959 0.265385 0.732417 82 57 32
0.706198 0.264362 0.729659 82 56 30
0.059633 0.274512 0.45797 94 74 55
0.092453 0.276845 0.511265 49 28 11
0.097066 0.277148 0.518417 48 28 12
0.106279 0.276917 0.521584 52 29 12
0.115489 0.276585 0.523423 37 20 8
0.122427 0.276032 0.520766 24 14 6
0.181287 0.283232 0.656537 57 33 16
0.183428 0.283359 0.659676 59 34 14
0.185581 0.283443 0.662258 58 35 15
0.187735 0.283516 0.664686 59 36 17
0.196436 0.283525 0.670707 62 38 17
0.235182 0.283713 0.699493 65 41 19
0.278 0.28332 0.723277 60 35 15
0.343984 0.282117 0.751921 56 34 15
0.368488 0.280477 0.746646 58 35 16
0.396825 0.27919 0.748655 47 28 12
0.399034 0.279067 0.748502 37 22 11
0.423439 0.27927 0.767661 67 43 22
0.429579 0.279261 0.771683 64 40 19
0.439276 0.279626 0.783074 57 38 19
0.470487 0.277602 0.777159 97 65 35
0.482534 0.276299 0.767923 76 53 31
0.48512 0.275924 0.764684 76 53 31
0.492221 0.275254 0.76054 82 56 31
0.496652 0.275012 0.760302 70 47 25
0.5138 0.274415 0.763881 58 37 17
0.522229 0.274201 0.766707 62 39 20
0.548475 0.272968 0.76793 61 38 18
0.552818 0.272782 0.768373 58 37 16
0.563937 0.272169 0.767674 66 43 21
0.565905 0.272191 0.769289 69 44 23
0.594086 0.271008 0.772462 73 47 22
0.616744 0.268565 0.755156 77 50 27
0.640689 0.266585 0.744881 80 53 26
0.680223 0.263933 0.736099 88 60 32
0.685437 0.263367 0.73207 86 58 34
0.716878 0.260899 0.720311 81 56 30
0.729014 0.259958 0.715928 88 58 32
0.73255 0.259287 0.709379 89 58 31
0.741851 0.258728 0.708181 97 64 35
0.113104 0.274144 0.520222 47 26 12
0.12002 0.273839 0.520869 21 11 6
0.122331 0.273689 0.520426 23 12 6
0.196291 0.281429 0.672334 62 37 16
0.207153 0.281382 0.679033 65 40 18
0.232953 0.281492 0.697845 64 39 19
0.273615 0.281212 0.7215 60 37 15
0.279788 0.281449 0.728781 59 34 14
0.341723 0.280032 0.751693 46 28 14
0.344016 0.27981 0.7503 45 27 13
0.372742 0.278106 0.747081 40 23 11
0.405536 0.276541 0.748413 39 25 12
0.451627 0.277258 0.788693 84 53 27
0.487408 0.273509 0.763165 89 62 35
0.494435 0.272888 0.759665 82 56 32
0.496702 0.272733 0.759133 75 50 28
0.531963 0.27095 0.759133 45 28 12
0.545049 0.270372 0.760247 59 36 18
0.547226 0.270279 0.760469 60 38 19
0.552815 0.270548 0.767729 61 38 18
0.56822 0.269782 0.767892 68 43 20
0.592518 0.268542 0.767732 72 46 24
0.60639 0.267548 0.763853 73 48 25
0.608637 0.267418 0.763639 76 49 24
0.624554 0.265395 0.747551 46 29 15
0.626753 0.265295 0.747712 43 27 13
0.72672 0.257816 0.715601 88 59 32
0.732468 0.257047 0.709297 90 59 30
0.110708 0.27182 0.518587 50 28 13
0.122237 0.271332 0.519915 22 11 6
0.124541 0.271248 0.520358 26 14 6
0.232862 0.27928 0.69778 67 40 20
0.235012 0.279269 0.699078 64 39 18
0.239373 0.279134 0.700215 65 40 19
0.245847 0.279037 0.703277 64 40 18
0.250228 0.278858 0.703859 60 37 18
0.256582 0.278932 0.709073 58 36 15
0.279846 0.279049 0.726131 58 35 15
0.301486 0.278317 0.730994 34 19 8
0.343937 0.277616 0.750116 41 26 12
0.359948 0.276149 0.741592 59 36 17
0.364158 0.276099 0.743741 56 34 14
0.377097 0.27564 0.746353 54 33 15
0.387863 0.275266 0.748624 65 42 19
0.390196 0.275031 0.747102 64 41 21
0.407458 0.274396 0.750272 49 32 16
0.409556 0.274367 0.751277 50 32 16
0.458274 0.274612 0.78683 99 65 35
0.470201 0.273332 0.778003 102 68 39
0.484934 0.271565 0.764671 87 61 35
0.494364 0.27069 0.759484 94 65 38
0.503332 0.270137 0.758197 73 50 27
0.522271 0.269696 0.764967 64 43 21
0.538882 0.268189 0.756263 43 26 13
0.54943 0.267926 0.759811 60 38 18
0.55173 0.267761 0.759164 60 39 17
0.566207 0.267546 0.765931 66 42 21
0.590384 0.266377 0.766636 67 43 22
0.599627 0.265712 0.764048 74 47 26
0.642982 0.261939 0.743373 85 57 31
0.680832 0.259129 0.731644 83 57 32
0.707119 0.257154 0.723199 83 57 31
0.716744 0.256423 0.719998 83 57 30
0.732416 0.254794 0.709063 92 61 33
0.10831 0.269467 0.516612 53 29 13
0.124448 0.268888 0.519813 24 14 7
0.209163 0.276869 0.679469 64 40 18
0.256536 0.276655 0.708112 59 35 17
0.260832 0.276601 0.710255 59 35 15
0.290852 0.276128 0.724002 57 32 14
0.299261 0.276161 0.73001 35 21 10
0.310059 0.275812 0.732628 38 23 11
0.329151 0.275542 0.741759 45 28 12
0.359924 0.273894 0.740744 57 33 15
0.364207 0.273775 0.742031 45 27 12
0.425005 0.272912 0.770961 71 45 23
0.427095 0.272876 0.77187 72 45 21
0.433033 0.273022 0.777687 63 40 19
0.447041 0.273194 0.789139 81 50 24
0.453601 0.272837 0.788826 94 62 33
0.458298 0.272364 0.785799 102 68 35
0.491963 0.26869 0.760343 98 69 39
0.503439 0.26782 0.75661 69 48 27
0.522466 0.267332 0.762794 65 43 21
0.538992 0.265875 0.754774 34 20 10
0.559861 0.265483 0.763401 67 44 22
0.595991 0.263266 0.758374 71 46 23
0.600352 0.263079 0.758817 69 45 23
0.615038 0.26167 0.750184 41 24 13
0.621991 0.261183 0.748444 54 33 17
0.64535 0.259504 0.742 85 58 30
0.673414 0.257541 0.734961 89 60 34
0.727075 0.253112 0.712751 87 59 30
0.758524 0.249883 0.691541 94 62 33
0.296942 0.274126 0.730534 54 31 14
0.327261 0.273023 0.736279 44 26 13
0.329438 0.272929 0.736501 43 27 13
0.35325 0.27204 0.740696 44 27 12
0.355477 0.271895 0.740291 47 29 12
0.368455 0.271412 0.742596 43 26 12
0.370624 0.271325 0.742906 53 31 14
0.394736 0.270138 0.743455 68 46 23
0.397002 0.269966 0.742729 59 41 23
0.421295 0.270349 0.763561 66 43 22
0.428745 0.270945 0.776096 70 43 21
0.442753 0.271137 0.787723 66 42 21
0.453501 0.270681 0.788891 102 67 36
0.458293 0.270137 0.785025 101 68 36
0.469915 0.269065 0.778848 105 71 40
0.477057 0.268318 0.773924 96 67 38
0.484485 0.267387 0.76682 93 66 38
0.494146 0.266344 0.759719 99 69 40
0.501171 0.265726 0.756368 61 41 24
0.531829 0.264298 0.758023 61 38 17
0.54745 0.263413 0.756838 45 27 13
0.553943 0.263158 0.757805 60 38 18
0.601079 0.260438 0.753569 59 38 19
0.6034 0.26027 0.752915 55 34 16
0.628982 0.258431 0.745958 83 54 27
0.664036 0.255942 0.736797 90 61 33
0.724518 0.251086 0.713779 87 58 30
0.727084 0.250833 0.712203 88 59 31
0.096591 0.263976 0.498222 52 29 12
0.198342 0.271893 0.665619 59 35 15
0.221988 0.272332 0.686672 63 39 17
0.23068 0.27218 0.690417 66 40 18
0.241424 0.272173 0.697351 69 43 19
0.275676 0.271974 0.717185 61 36 15
0.288582 0.271697 0.722085 57 33 14
0.316496 0.271046 0.732002 32 18 8
0.331738 0.270404 0.733756 39 23 10
0.335877 0.270459 0.737161 42 23 10
0.394648 0.267946 0.743393 69 45 24
0.442664 0.268973 0.787688 63 42 22
0.489364 0.264583 0.762059 89 61 35
0.538817 0.261488 0.754672 38 22 9
0.547644 0.261047 0.754774 39 24 11
0.56688 0.260433 0.759392 64 41 19
0.571816 0.259909 0.755912 68 44 23
0.60119 0.25813 0.752248 43 26 14
0.608622 0.257371 0.747391 44 27 13
0.610738 0.257317 0.748066 42 25 13
0.612886 0.257245 0.748542 41 25 11
0.098809 0.261647 0.499721 51 29 12
0.112638 0.262183 0.515488 51 28 12
0.12418 0.261684 0.51668 28 15 6
0.128812 0.261363 0.515624 31 16 6
0.1311 0.261426 0.517906 38 22 10
0.239235 0.269873 0.694814 65 40 19
0.305472 0.26937 0.73141 58 33 12
0.311833 0.269306 0.734709 49 29 12
0.333826 0.268118 0.733946 36 19 9
0.351026 0.267614 0.738708 43 27 13
0.359951 0.26702 0.736964 55 34 16
0.394515 0.265794 0.743822 67 46 23
0.398883 0.265594 0.744112 71 49 27
0.440427 0.266899 0.787395 62 40 22
0.44682 0.266668 0.788605 89 56 28
0.457962 0.265917 0.786292 101 67 37
0.520451 0.260589 0.759219 64 42 22
0.522842 0.260356 0.757816 60 40 24
0.558863 0.258141 0.752997 46 29 13
0.561008 0.258071 0.753484 52 32 15
0.565689 0.257695 0.75174 56 35 17
0.572303 0.257377 0.751972 59 38 19
0.587986 0.256495 0.750906 53 34 18
0.60875 0.255049 0.745978 49 30 16
0.615178 0.254845 0.747528 62 40 19
0.619726 0.254566 0.746918 81 53 27
0.631381 0.253724 0.743765 83 57 32
0.661731 0.251573 0.736075 87 59 32
0.726997 0.246323 0.711648 91 60 31
0.735561 0.245169 0.702569 94 61 32
0.746462 0.243888 0.693391 91 57 30
0.749149 0.243589 0.691337 89 56 27
0.114864 0.259554 0.513104 50 29 14
0.176595 0.266463 0.639458 51 30 12
0.234817 0.267713 0.692652 67 41 18
0.279899 0.267337 0.716967 64 38 18
0.294754 0.267287 0.725889 65 42 19
0.313917 0.267024 0.734924 58 35 14
0.329384 0.266106 0.733368 55 34 14
0.409047 0.263486 0.751675 73 49 25
0.469656 0.262542 0.778654 107 73 40
0.489018 0.260332 0.763346 98 67 38
0.496394 0.259454 0.757063 99 69 39
0.522887 0.258079 0.756763 66 44 23
0.536213 0.257352 0.756167 78 50 24
0.552419 0.256109 0.750947 36 22 11
0.568111 0.255209 0.74968 40 23 14
0.574457 0.255051 0.75175 47 28 13
0.602073 0.253137 0.745389 44 27 13
0.604267 0.253041 0.745583 49 30 14
0.606463 0.252944 0.74577 54 36 15
0.657436 0.249448 0.734468 90 60 33
0.690186 0.247182 0.726945 84 57 29
0.711698 0.245553 0.720257 86 57 30
0.10093 0.256848 0.499482 68 42 20
0.107878 0.256689 0.501934 50 28 12
0.126322 0.256682 0.513683 27 15 6
0.17873 0.264124 0.639679 51 30 13
0.29478 0.264932 0.723941 68 45 22
0.305542 0.26466 0.727435 59 37 16
0.335865 0.263593 0.733548 66 40 18
0.351075 0.262986 0.735711 68 43 22
0.357458 0.262868 0.738309 68 43 21
0.37259 0.262325 0.741204 73 46 23
0.379224 0.261944 0.740703 74 47 23
0.392092 0.261568 0.744224 75 48 24
0.402751 0.2613 0.747691 73 49 26
0.455219 0.261992 0.78964 107 71 38
0.462279 0.261258 0.785008 105 70 38
0.464681 0.260981 0.783091 112 73 40
0.472056 0.260035 0.776035 104 71 39
0.500912 0.256901 0.755422 90 64 37
0.561236 0.253432 0.750582 42 26 12
0.568196 0.252906 0.748447 36 22 11
0.570511 0.252735 0.747793 39 25 13
0.572697 0.252641 0.748015 41 26 12
0.585865 0.252049 0.749002 40 25 12
0.619452 0.250211 0.747432 70 47 24
0.713985 0.243153 0.719579 88 59 29
0.744037 0.239494 0.693149 96 62 29
0.130894 0.253783 0.509528 29 16 9
0.219446 0.263492 0.685452 64 39 19
0.256179 0.263099 0.703944 69 43 21
0.301237 0.262455 0.724605 65 42 20
0.338031 0.261218 0.732693 75 46 20
0.379305 0.259586 0.738714 72 44 23
0.422619 0.259696 0.76745 67 44 25
0.471811 0.257977 0.777315 104 72 39
0.478909 0.257248 0.772817 98 67 37
0.500786 0.254737 0.75567 93 66 37
0.523203 0.25337 0.752956 64 43 23
0.545198 0.25231 0.753739 82 52 24
0.549756 0.251999 0.752786 77 48 23
0.552102 0.251803 0.751842 70 44 22
0.601637 0.248878 0.746959 80 52 24
0.633809 0.246739 0.740839 92 62 32
0.652629 0.245326 0.735261 94 63 35
0.671302 0.244026 0.730973 85 58 31
0.119277 0.251399 0.501526 51 29 13
0.251904 0.260723 0.6992 66 41 19
0.254049 0.260718 0.700498 65 40 18
0.272994 0.261128 0.717457 65 41 19
0.286423 0.26011 0.713476 59 36 15
0.296993 0.260153 0.720668 64 40 18
0.307754 0.259899 0.724336 57 35 16
0.314083 0.259898 0.72831 62 39 18
0.379233 0.257375 0.738459 70 44 22
0.387773 0.257171 0.74133 76 49 23
0.404505 0.257048 0.750341 76 48 24
0.420438 0.257551 0.766482 73 49 25
0.440169 0.258163 0.786336 80 52 25
0.521073 0.251177 0.751634 63 42 23
0.613057 0.245888 0.744487 84 54 28
0.636174 0.244297 0.739467 96 66 37
0.647874 0.243443 0.736341 95 67 37
0.652553 0.243106 0.735149 94 65 36
0.688014 0.240459 0.724932 84 57 31
0.695067 0.239963 0.723281 83 58 31
0.702608 0.239233 0.719065 90 61 34
0.715283 0.237983 0.711702 88 59 32
0.204313 0.258522 0.669504 59 35 14
0.223715 0.258764 0.684601 62 39 19
0.228024 0.25878 0.687496 65 39 18
0.238789 0.258782 0.694266 62 38 16
0.266764 0.258535 0.70879 67 41 19
0.273228 0.258421 0.711463 64 40 18
0.301252 0.257794 0.721411 62 38 17
0.30983 0.257629 0.724775 62 37 16
0.327099 0.257118 0.729376 61 39 18
0.346532 0.256499 0.734015 70 44 22
0.393916 0.254982 0.745212 75 49 25
0.412335 0.255176 0.759042 70 45 23
0.424436 0.255394 0.769227 66 42 20
0.476164 0.253288 0.775899 101 69 37
0.488539 0.251686 0.764184 101 69 38
0.552152 0.247266 0.750143 83 54 26
0.596912 0.244759 0.747521 86 56 28
0.601448 0.244479 0.746942 80 53 28
0.610691 0.243826 0.744759 79 53 27
0.690394 0.238011 0.723689 86 59 32
0.189162 0.255686 0.65277 54 30 12
0.212919 0.256272 0.674603 60 36 16
0.238731 0.256502 0.693445 64 40 17
0.249497 0.256445 0.699452 63 38 17
0.268862 0.256238 0.709008 69 42 19
0.292574 0.255754 0.717931 59 36 15
0.313941 0.255457 0.727636 65 41 19
0.316128 0.255356 0.727786 66 40 19
0.327047 0.254876 0.728791 65 41 19
0.389664 0.252796 0.742637 78 51 25
0.436039 0.253725 0.782515 79 50 25
0.455018 0.253216 0.788124 103 70 37
0.52339 0.246482 0.749394 64 42 23
0.52766 0.246358 0.750542 65 45 24
0.531944 0.246223 0.751567 79 53 28
0.563338 0.244378 0.74874 77 49 25
0.589941 0.243027 0.748893 77 53 28
0.61321 0.241289 0.742334 88 59 31
0.654907 0.238407 0.733354 101 69 38
0.683208 0.236309 0.725562 84 57 31
0.240901 0.254074 0.692233 64 37 17
0.277357 0.25393 0.713047 67 40 16
0.294547 0.253632 0.720107 64 37 16
0.318318 0.252941 0.726533 68 42 18
0.350846 0.251774 0.732673 78 48 22
0.374588 0.251 0.738067 74 45 20
0.435965 0.251546 0.782335 83 53 27
0.447947 0.251754 0.79218 98 62 30
0.459342 0.25078 0.787559 99 68 37
0.461662 0.250556 0.786316 97 64 36
0.54337 0.243162 0.748239 83 53 28
0.652655 0.236265 0.732867 100 68 40
0.719975 0.230836 0.709294 93 62 33
0.722646 0.230521 0.707172 95 62 33
0.736824 0.22857 0.692583 97 63 33
0.191383 0.250568 0.646541 51 30 14
0.204198 0.251412 0.664406 57 33 14
0.21054 0.251878 0.673819 58 34 13
0.232137 0.251971 0.68818 64 40 17
0.234285 0.251987 0.689689 66 39 18
0.255947 0.251661 0.699132 65 41 18
0.266652 0.251649 0.705565 68 41 20
0.273145 0.251504 0.70784 69 41 21
0.277589 0.251221 0.707217 68 41 19
0.29459 0.251242 0.717886 68 41 19
0.301264 0.250803 0.716786 68 42 19
0.350829 0.249497 0.731706 78 47 22
0.441733 0.249604 0.788536 89 56 28
0.452514 0.249119 0.789378 109 71 38
0.456859 0.2489 0.789432 106 71 39
0.471196 0.247242 0.778568 105 71 37
0.488153 0.245224 0.765028 100 68 36
0.516708 0.242341 0.748321 90 62 34
0.523472 0.241911 0.747344 75 51 29
0.534189 0.241578 0.749922 69 46 24
0.572208 0.239413 0.747446 83 54 27
0.624643 0.236038 0.739378 94 62 33
0.688025 0.231377 0.722746 89 59 30
0.690538 0.231127 0.721309 85 56 29
0.715412 0.228806 0.708971 93 60 33
0.723255 0.227939 0.703481 93 61 32
0.740151 0.225654 0.686713 94 61 31
0.191369 0.24809 0.643766 54 31 14
0.208536 0.248993 0.664853 58 34 14
0.223601 0.24932 0.677885 62 37 17
0.240753 0.249573 0.69132 64 40 19
0.247168 0.249641 0.69603 68 41 19
0.24929 0.249687 0.697869 68 42 20
0.264413 0.249459 0.704407 74 46 22
0.279628 0.249017 0.708501 70 43 19
0.370058 0.246792 0.737427 77 48 23
0.391704 0.246 0.741285 72 47 24
0.421924 0.246778 0.768761 66 43 22
0.45225 0.247098 0.790903 111 72 38
0.482811 0.243919 0.772108 105 70 39
0.518925 0.239965 0.747548 91 61 35
0.582966 0.236798 0.74908 86 57 31
0.59481 0.235778 0.744265 88 58 29
0.624722 0.233732 0.738312 92 60 33
0.627004 0.233589 0.738006 92 60 32
0.629208 0.233491 0.738179 88 59 33
0.641236 0.232436 0.733061 90 61 32
0.721267 0.225632 0.701503 93 60 32
0.135279 0.234009 0.471864 115 86 51
0.216958 0.247207 0.675147 56 33 14
0.238497 0.247377 0.690189 58 36 18
0.273038 0.246967 0.706345 69 42 20
0.279519 0.246838 0.708763 70 43 20
0.281677 0.246797 0.709594 71 44 20
0.30331 0.246247 0.716286 65 40 19
0.367809 0.244669 0.736906 69 43 20
0.369915 0.244655 0.738006 73 45 22
0.378724 0.244184 0.737842 74 45 22
0.410013 0.244088 0.755602 71 46 23
0.431546 0.245093 0.780288 76 49 25
0.445522 0.245371 0.791938 99 63 32
0.458995 0.244348 0.788145 110 74 39
0.497314 0.239997 0.760523 96 64 35
0.572287 0.23485 0.745617 86 57 28
0.590477 0.233679 0.742889 90 58 31
0.613289 0.232207 0.739436 90 60 32
0.629629 0.230988 0.735036 90 60 33
0.638935 0.230322 0.732864 85 57 32
0.647817 0.229901 0.733286 92 62 32
0.703036 0.225371 0.713633 91 60 33
0.22356 0.244548 0.674112 61 36 15
0.257705 0.245225 0.702507 67 40 17
0.259899 0.24513 0.702728 70 42 20
0.329015 0.243502 0.725474 76 45 21
0.354959 0.242679 0.731546 63 39 18
0.411927 0.241966 0.757482 68 43 23
0.426535 0.243652 0.7857 69 45 23
0.43514 0.243282 0.786578 79 51 28
0.447449 0.243228 0.793321 97 61 32
0.46125 0.241936 0.786653 107 73 41
0.507178 0.236517 0.751475 86 59 34
0.509375 0.236411 0.751567 81 56 33
0.521025 0.235411 0.746959 98 67 38
0.568117 0.232646 0.743111 85 57 30
0.634246 0.22841 0.733579 88 59 32
0.647873 0.227605 0.73239 92 62 34
0.671771 0.225643 0.723955 91 60 33
0.700756 0.22322 0.713221 89 60 29
0.711149 0.22206 0.706011 92 58 30
0.197542 0.241734 0.651796 50 28 13
0.212549 0.24246 0.66911 52 30 13
0.214683 0.242559 0.671517 53 31 13
0.309644 0.241629 0.717648 67 43 19
0.331143 0.241167 0.725188 76 46 20
0.354938 0.240403 0.730633 58 36 18
0.372268 0.239796 0.733998 69 44 22
0.380856 0.239565 0.73647 71 44 21
0.41765 0.240144 0.765022 59 39 20
0.439627 0.240698 0.78445 95 60 30
0.44736 0.241066 0.793277 102 64 33
0.477675 0.237995 0.776072 107 73 41
0.487041 0.237072 0.771049 102 66 36
0.502219 0.23489 0.755037 95 63 35
0.525524 0.232869 0.745692 76 53 30
0.606454 0.228116 0.73915 92 61 32
0.615719 0.22745 0.736994 89 59 31
0.700993 0.220817 0.711412 92 62 33
0.191069 0.238881 0.640963 46 25 11
0.210391 0.239946 0.66458 54 31 14
0.236111 0.240633 0.687693 61 36 17
0.259872 0.240433 0.699544 69 42 21
0.272771 0.240332 0.706066 68 41 19
0.290147 0.239836 0.710748 71 44 19
0.311812 0.239234 0.716756 66 43 19
0.335494 0.23869 0.724615 67 40 18
0.348549 0.238194 0.72671 67 42 19
0.370007 0.237681 0.733592 66 42 21
0.423363 0.238316 0.772398 63 40 20
0.425363 0.238368 0.774165 68 44 22
0.42893 0.238854 0.781807 69 46 25
0.432959 0.238914 0.784882 78 52 27
0.440823 0.239187 0.79263 95 60 30
0.532356 0.230132 0.743594 78 54 30
0.550142 0.229183 0.743274 85 59 34
0.572501 0.227934 0.742225 86 58 33
0.586133 0.22706 0.740304 89 59 31
0.608721 0.225716 0.738305 93 61 32
0.627408 0.224301 0.733194 87 58 29
0.641228 0.223377 0.730814 92 64 36
0.676275 0.220864 0.722827 91 61 31
0.696048 0.218996 0.713204 88 56 29
0.203964 0.23714 0.654299 51 29 12
0.214585 0.237887 0.669007 52 30 13
0.225307 0.2382 0.678887 54 32 14
0.309592 0.237042 0.715581 63 40 20
0.32456 0.236851 0.722256 68 43 20
0.350621 0.235928 0.727176 76 46 21
0.380727 0.235121 0.735796 77 49 24
0.41549 0.235709 0.762883 68 43 21
0.430695 0.236862 0.784838 71 48 25
0.513707 0.229468 0.750024 84 57 31
0.534547 0.227772 0.743087 89 60 33
0.577006 0.225404 0.741183 88 60 34
0.581575 0.225096 0.740379 92 63 34
0.583908 0.224911 0.739664 84 58 32
0.586189 0.224761 0.7393 88 59 30
0.706281 0.215619 0.70626 90 58 31
0.197529 0.234233 0.64302 48 28 12
0.205938 0.235227 0.659101 49 27 13
0.233835 0.236053 0.684751 58 35 15
0.240343 0.235986 0.687829 60 35 16
0.298511 0.235371 0.71507 69 42 20
0.300699 0.235279 0.715315 72 44 21
0.309501 0.234839 0.71554 65 42 21
0.333201 0.234291 0.723291 63 38 18
0.35692 0.233638 0.729853 71 44 21
0.359043 0.233614 0.73083 69 44 23
0.376401 0.232977 0.733848 75 47 23
0.389098 0.232825 0.739566 70 46 24
0.430414 0.234869 0.786623 64 43 23
0.432552 0.234789 0.78697 71 46 24
0.434615 0.234774 0.788012 82 53 26
0.440629 0.23488 0.792708 97 60 31
0.44519 0.234466 0.790726 104 66 33
0.454185 0.23376 0.78806 104 68 35
0.4564 0.233615 0.787723 103 71 38
0.465429 0.232899 0.784967 113 77 44
0.482535 0.23065 0.769725 107 72 38
0.49696 0.228995 0.759576 94 62 34
0.516184 0.226895 0.747238 91 61 33
0.586344 0.222398 0.737645 86 58 31
0.604226 0.221441 0.737315 95 62 32
0.636302 0.219336 0.732349 98 68 38
0.696529 0.214178 0.709523 89 58 30
0.220963 0.233328 0.671619 54 33 14
0.227248 0.233847 0.681059 55 31 14
0.229591 0.233446 0.677967 55 32 13
0.233795 0.233718 0.683453 60 37 17
0.272551 0.233616 0.704928 67 42 18
0.28567 0.233122 0.707081 67 43 21
0.365619 0.231002 0.730047 75 47 24
0.41913 0.231648 0.768318 74 48 24
0.43051 0.232537 0.784825 66 44 22
0.467745 0.230433 0.783003 109 74 41
0.477268 0.229338 0.776338 108 74 41
0.482442 0.228474 0.769714 106 72 39
0.506242 0.225922 0.755105 94 62 34
0.529725 0.223753 0.744558 87 59 30
0.604297 0.219132 0.736245 97 63 35
0.620697 0.217848 0.731437 92 62 33
0.622774 0.217829 0.732421 92 61 31
0.659607 0.215387 0.726522 93 61 32
0.661965 0.215206 0.725872 92 61 32
0.69908 0.211622 0.707421 91 59 30
0.223209 0.230706 0.668564 56 33 15
0.23589 0.231443 0.68406 61 37 17
0.25531 0.2314 0.694855 64 40 18
0.266034 0.231413 0.701213 63 40 18
0.276721 0.231432 0.707619 67 41 18
0.278901 0.231359 0.708075 67 41 18
0.388954 0.228401 0.739078 64 42 22
0.409035 0.229146 0.758909 65 42 19
0.442579 0.230484 0.793032 94 60 29
0.474729 0.227493 0.778514 106 72 40
0.524877 0.222025 0.746986 97 64 35
0.545638 0.220403 0.741013 79 55 32
0.588763 0.217627 0.735125 92 61 32
0.601817 0.217138 0.737226 92 61 31
0.631544 0.215202 0.732904 98 65 36
0.65277 0.213526 0.72657 91 60 32
0.671673 0.21206 0.721231 94 62 32
0.679103 0.211329 0.71743 93 61 33
0.205885 0.227895 0.652201 41 24 10
0.238002 0.229131 0.684278 62 37 18
0.242269 0.229239 0.687921 61 36 16
0.24883 0.229052 0.689648 61 37 15
0.29194 0.228622 0.709778 68 41 18
0.2941 0.228578 0.710537 69 43 19
0.296259 0.228533 0.711293 67 42 20
0.309258 0.228184 0.714944 68 41 20
0.33506 0.227668 0.724135 71 43 19
0.354584 0.226998 0.728011 69 43 20
0.391 0.226159 0.739733 65 41 22
0.422373 0.227963 0.777516 69 45 23
0.456079 0.227166 0.788084 108 70 37
0.477308 0.224812 0.774431 106 73 41
0.512917 0.221017 0.753198 96 62 34
0.524783 0.219831 0.746979 98 63 31
0.541179 0.218382 0.740465 91 63 35
0.552316 0.217779 0.740213 72 51 28
0.676794 0.2092 0.717198 88 59 33
0.710153 0.205492 0.69558 90 57 29
0.71269 0.205231 0.694171 89 57 31
0.205805 0.225616 0.651731 42 25 11
0.220826 0.226299 0.667778 52 28 14
0.268119 0.226769 0.699994 66 39 18
0.283201 0.226595 0.70674 71 43 22
0.317884 0.225663 0.716439 68 43 20
0.322169 0.225602 0.71823 64 41 19
0.328639 0.225448 0.720253 67 41 20
0.337211 0.225303 0.72357 68 42 21
0.409077 0.224563 0.756552 61 39 20
0.412689 0.225091 0.764357 60 38 18
0.426221 0.225961 0.781545 58 38 21
0.430188 0.226093 0.78523 72 47 26
0.436116 0.226297 0.790832 88 56 28
0.440192 0.226311 0.793308 92 58 29
0.448875 0.225859 0.793328 104 66 33
0.48438 0.221811 0.769483 101 67 35
0.503602 0.219596 0.756297 98 64 35
0.538924 0.216256 0.740029 94 62 36
0.541136 0.216146 0.740083 95 64 36
0.561344 0.214952 0.738568 74 49 28
0.581367 0.213909 0.738582 84 55 30
0.592384 0.213405 0.739344 90 60 34
0.225088 0.224058 0.670094 54 30 13
0.259552 0.224344 0.692812 62 37 16
0.261623 0.224493 0.695601 64 39 18
0.276665 0.224437 0.703563 62 36 17
0.324308 0.223249 0.717825 68 43 20
0.373768 0.22209 0.733402 75 47 23
0.390821 0.221771 0.73963 68 44 22
0.436005 0.224155 0.790992 90 58 30
0.437788 0.224396 0.794612 93 57 27
0.460072 0.222766 0.789613 99 64 32
0.534196 0.214432 0.741459 94 62 31
0.536773 0.214053 0.73882 94 62 33
0.541159 0.213861 0.739225 95 63 36
0.581397 0.211622 0.737737 85 56 30
0.583677 0.21147 0.737383 87 57 29
0.586031 0.21127 0.736548 90 60 30
0.61824 0.209022 0.730422 94 60 32
0.636692 0.207753 0.727112 96 63 34
0.64101 0.207619 0.728096 96 64 35
0.643393 0.207416 0.727251 92 62 33
0.655065 0.20656 0.724585 89 58 31
0.662329 0.205901 0.721561 91 59 30
0.669807 0.205126 0.717403 93 59 30
0.684415 0.203804 0.711348 92 59 32
0.702315 0.201826 0.700059 91 60 31
0.1994 0.220054 0.636492 42 24 11
0.20578 0.220679 0.646817 41 24 11
0.244354 0.222159 0.684543 58 35 15
0.289743 0.221662 0.704898 65 40 19
0.33281 0.220886 0.720924 67 41 17
0.350084 0.220416 0.725641 73 47 23
0.378095 0.219647 0.733194 70 45 23
0.410627 0.220546 0.76118 58 38 17
0.431863 0.22195 0.788206 88 56 30
0.44878 0.221464 0.792514 93 64 36
0.451071 0.221245 0.791458 99 68 38
0.455513 0.220934 0.790617 112 74 41
0.47446 0.21873 0.777629 107 70 38
0.486676 0.217108 0.767099 98 64 34
0.500992 0.215512 0.75802 95 63 32
0.50584 0.214934 0.754546 94 63 34
0.51764 0.213768 0.748668 97 63 35
0.536469 0.212008 0.740356 92 62 34
0.538718 0.21187 0.740138 93 62 32
0.593089 0.208407 0.733497 94 62 33
0.597503 0.208206 0.73381 91 62 34
0.244324 0.219806 0.683116 57 34 15
0.261449 0.220045 0.695308 63 39 17
0.268122 0.219626 0.694593 64 38 16
0.293803 0.219645 0.70924 66 40 17
0.300436 0.219276 0.709042 71 44 20
0.313314 0.219119 0.714614 67 42 19
0.361449 0.217113 0.720277 71 44 21
0.371498 0.217684 0.731992 73 45 19
0.373578 0.217709 0.733425 72 45 20
0.382233 0.217416 0.735159 72 46 22
0.414532 0.218517 0.764987 72 45 20
0.538563 0.209715 0.74057 88 60 32
0.54766 0.209092 0.739011 85 58 32
0.551964 0.20896 0.740001 88 60 32
0.567908 0.207875 0.737345 91 61 33
0.597613 0.205863 0.732476 93 64 36
0.601883 0.205758 0.733735 93 61 33
0.610905 0.205232 0.733157 97 64 35
0.648438 0.202296 0.722814 81 55 29
0.677499 0.199674 0.711058 95 59 31
0.199412 0.214941 0.630008 43 25 11
0.239976 0.217429 0.679043 52 30 14
0.255005 0.217624 0.689515 60 36 15
0.276602 0.217436 0.699606 66 40 17
0.289689 0.217032 0.70265 68 41 20
0.295978 0.217227 0.708232 65 38 19
0.439823 0.217683 0.79328 102 64 34
0.450649 0.21714 0.79357 123 82 45
0.554101 0.206636 0.739926 89 60 32
0.567743 0.205721 0.737819 89 59 31
0.570012 0.205574 0.737522 89 58 32
0.572334 0.20539 0.736862 89 58 30
0.652809 0.199858 0.72296 88 58 30
0.657686 0.199391 0.72073 92 61 33
0.695763 0.195162 0.697089 92 59 31
0.216522 0.213778 0.650992 44 25 12
0.218612 0.214035 0.654864 41 25 11
0.257108 0.215327 0.689862 62 36 16
0.280752 0.215301 0.702732 64 39 18
0.285199 0.215018 0.702231 66 40 20
0.380006 0.212965 0.73331 69 44 20
0.408358 0.213926 0.75912 63 40 19
0.416225 0.214362 0.768042 72 47 24
0.433804 0.215313 0.787767 88 55 27
0.464294 0.213684 0.787511 103 66 32
0.48687 0.210179 0.763183 102 68 37
0.556322 0.204251 0.739259 87 58 31
0.581496 0.202476 0.734519 85 56 30
0.610969 0.200648 0.731546 91 59 31
0.638761 0.198649 0.725838 95 63 34
0.643507 0.19825 0.724282 86 58 31
0.672905 0.195386 0.710411 91 59 30
0.682711 0.19446 0.70609 87 55 29
0.698395 0.192543 0.694583 88 56 29
0.220605 0.212054 0.658651 45 26 12
0.246433 0.212665 0.679316 48 29 13
0.250748 0.21269 0.681962 54 32 15
0.295867 0.212695 0.706968 65 40 18
0.298039 0.212635 0.707551 68 42 20
0.313179 0.212301 0.712424 68 44 22
0.315345 0.212244 0.713027 61 37 19
0.334781 0.211787 0.718993 70 42 21
0.349996 0.211266 0.721959 73 45 22
0.37992 0.210763 0.733214 68 41 19
0.396517 0.210948 0.744289 70 44 21
0.404618 0.211212 0.751502 67 42 20
0.416115 0.212207 0.768209 72 47 24
0.421405 0.213116 0.780605 71 44 22
0.423486 0.213096 0.781538 68 43 21
0.455 0.212424 0.791867 123 82 46
0.46174 0.211887 0.78997 110 70 36
0.486777 0.207998 0.763176 105 70 36
0.597843 0.198891 0.729128 88 58 31
0.608675 0.198533 0.731314 88 56 28
0.625172 0.197167 0.726104 89 55 28
0.672809 0.193159 0.710404 89 58 30
0.680395 0.192325 0.705855 84 54 28
0.69633 0.190247 0.692917 90 58 29
0.698632 0.190108 0.692754 93 59 31
0.216451 0.208986 0.647754 43 25 11
0.244194 0.210399 0.677661 51 28 13
0.250568 0.21065 0.683763 52 30 12
0.285066 0.21051 0.701288 71 42 19
0.29372 0.210353 0.704417 63 39 18
0.298084 0.210208 0.705313 64 38 17
0.328443 0.209417 0.713789 69 41 19
0.332731 0.209361 0.71557 69 43 21
0.360655 0.208829 0.725382 71 44 20
0.362929 0.208628 0.724544 68 43 19
0.373433 0.208668 0.730718 71 44 19
0.379883 0.208505 0.732561 68 41 19
0.392452 0.208527 0.739678 72 44 21
0.404533 0.20902 0.751403 67 42 20
0.416023 0.210034 0.768202 74 48 24
0.427479 0.210965 0.784109 79 51 25
0.435311 0.211339 0.792265 91 58 28
0.446065 0.210863 0.793216 112 71 38
0.452615 0.210488 0.792916 117 78 44
0.454856 0.210312 0.792316 120 79 44
0.517834 0.202282 0.743547 91 60 30
0.542908 0.200474 0.738493 91 58 30
0.563596 0.198925 0.733735 88 56 28
0.593076 0.197055 0.730446 83 54 28
0.595457 0.196837 0.729489 85 55 30
0.647564 0.192447 0.712407 92 61 33
0.653402 0.192662 0.717794 91 58 30
0.655395 0.192699 0.719289 91 59 30
0.660384 0.192165 0.716456 93 57 29
0.686107 0.189096 0.6987 92 60 32
0.287091 0.208342 0.702847 68 40 19
0.300308 0.207712 0.703593 63 39 18
0.306722 0.207704 0.707006 72 45 21
0.310878 0.20787 0.710993 70 43 20
0.332754 0.206998 0.713963 73 45 21
0.356292 0.206689 0.723631 65 41 17
0.392352 0.206345 0.739746 69 43 20
0.394381 0.206418 0.741602 67 42 22
0.396363 0.206539 0.743925 66 41 19
0.411929 0.207712 0.764473 66 41 22
0.448118 0.208615 0.793447 117 77 41
0.51552 0.200208 0.743581 96 62 32
0.517954 0.199916 0.741898 93 61 32
0.522348 0.199711 0.742178 91 61 31
0.524635 0.199538 0.741646 92 59 30
0.534013 0.198679 0.737887 89 58 31
0.618214 0.193122 0.726393 93 60 31
0.662834 0.189641 0.714753 89 58 30
0.665078 0.189529 0.714808 87 57 29
0.680784 0.187513 0.702585 90 58 31
0.261367 0.205829 0.685776 57 33 14
0.267738 0.206014 0.691136 63 38 16
0.295925 0.205523 0.701434 66 39 17
0.326071 0.205096 0.713449 67 40 19
0.330574 0.204739 0.712254 72 46 22
0.343264 0.204802 0.719776 71 44 21
0.347642 0.204613 0.720222 70 43 21
0.35201 0.204439 0.720818 71 44 20
0.383911 0.204104 0.734692 71 45 21
0.385999 0.204118 0.735969 69 42 20
0.435068 0.207082 0.792807 93 60 29
0.441565 0.206752 0.792953 102 68 36
0.461654 0.205232 0.788288 118 77 40
0.506017 0.198938 0.747943 94 63 34
0.547378 0.195672 0.736926 87 55 28
0.556383 0.195121 0.736143 88 55 29
0.673317 0.185991 0.705875 88 55 29
0.210203 0.200464 0.626177 41 25 10
0.244075 0.20337 0.67401 51 28 12
0.252709 0.203445 0.679445 50 28 13
0.265638 0.203513 0.687121 62 36 15
0.321719 0.202896 0.711171 65 41 19
0.330486 0.202528 0.712172 71 43 18
0.358478 0.201966 0.721554 69 42 19
0.36692 0.201972 0.726206 70 43 19
0.419285 0.204136 0.776358 74 46 23
0.429265 0.204474 0.785162 89 57 29
0.436958 0.204992 0.794547 96 64 34
0.490957 0.198908 0.761854 94 63 36
0.51086 0.196088 0.743911 93 60 34
0.534062 0.194089 0.736109 86 55 28
0.558796 0.19259 0.734151 85 54 27
0.599608 0.189992 0.729676 81 51 26
0.604151 0.189706 0.729213 86 54 26
0.622465 0.188483 0.726615 88 55 27
0.636783 0.187206 0.721339 90 57 29
0.68151 0.18249 0.697423 88 56 30
0.68693 0.181717 0.692498 86 55 28
0.233415 0.200423 0.661021 46 28 12
0.267721 0.201257 0.687881 59 34 15
0.289279 0.201155 0.698448 65 39 18
0.341067 0.200253 0.717161 69 42 19
0.360573 0.19967 0.721772 69 42 21
0.368909 0.19981 0.727657 66 40 18
0.377741 0.19933 0.727534 62 39 17
0.420896 0.202344 0.781027 78 51 23
0.430629 0.202912 0.791972 89 57 29
0.43269 0.202906 0.793011 90 59 29
0.438957 0.202797 0.795269 108 69 37
0.456614 0.201605 0.792688 116 77 41
0.468283 0.200307 0.78586 106 71 37
0.483512 0.197739 0.76811 104 69 36
0.540784 0.191419 0.735005 88 56 30
0.556579 0.190424 0.733415 82 51 25
0.599734 0.187629 0.728249 84 53 26
0.601716 0.187686 0.729873 85 53 26
0.608999 0.186937 0.726213 87 55 27
0.615726 0.186576 0.726145 86 54 27
0.617946 0.186471 0.72626 86 55 29
0.624982 0.185905 0.724312 84 53 26
0.65882 0.182714 0.710214 89 57 30
0.694685 0.178495 0.686787 90 59 33
0.254844 0.198669 0.6773 52 30 13
0.278565 0.198724 0.690557 60 34 15
0.291399 0.198826 0.698434 61 36 16
0.293667 0.198615 0.697522 64 38 17
0.300045 0.1987 0.701778 66 39 17
0.326019 0.198152 0.710193 55 34 15
