ply
format ascii 1.0
element vertex 1291
property double x
property double y
property double z
property uchar red
property uchar green
property uchar blue
end_header
0.125385 0.960946 0.302158 123 126 140
0.126413 0.959918 0.304214 119 118 136
0.127441 0.964029 0.305242 115 118 133
0.117163 0.972251 0.276465 169 156 150
0.117163 0.969168 0.285714 155 144 141
0.118191 0.969168 0.288798 135 129 129
0.120247 0.974306 0.283659 170 156 148
0.121274 0.974306 0.284687 172 157 150
0.120247 0.975334 0.277492 177 163 156
0.120247 0.976362 0.276465 178 164 157
0.120247 0.975334 0.279548 177 162 155
0.121274 0.976362 0.279548 178 163 155
0.121274 0.975334 0.280576 177 162 155
0.124358 0.978417 0.27852 178 163 156
0.124358 0.97739 0.281603 181 165 157
0.124358 0.97739 0.283659 180 164 156
0.126413 0.980473 0.274409 180 165 158
0.126413 0.981501 0.275437 182 167 160
0.128469 0.982528 0.274409 188 172 164
0.127441 0.980473 0.281603 181 166 159
0.129496 0.982528 0.277492 190 175 169
0.129496 0.981501 0.280576 187 173 167
0.128469 0.978417 0.288798 181 164 154
0.127441 0.979445 0.284687 176 161 153
0.119219 0.96814 0.290853 114 116 127
0.12333 0.967112 0.298047 166 168 178
0.121274 0.972251 0.290853 107 110 119
0.122302 0.971223 0.294964 86 91 109
0.125385 0.970195 0.299075 114 119 130
0.126413 0.970195 0.300103 138 141 149
0.128469 0.973279 0.299075 117 110 109
0.129496 0.967112 0.306269 96 91 109
0.129496 0.971223 0.304214 119 113 119
0.13258 0.972251 0.304214 148 139 136
0.126413 0.975334 0.292909 152 140 135
0.129496 0.976362 0.292909 179 162 151
0.131552 0.978417 0.291881 177 162 154
0.131552 0.97739 0.293936 178 162 153
0.129496 0.975334 0.295992 176 159 150
0.13258 0.976362 0.298047 180 163 153
0.133607 0.982528 0.28777 184 168 160
0.134635 0.974306 0.302158 182 164 154
0.135663 0.973279 0.304214 178 162 153
0.138746 0.973279 0.305242 181 164 154
0.138746 0.978417 0.299075 182 165 156
0.140802 0.980473 0.299075 181 166 158
0.144913 0.981501 0.298047 186 171 163
0.142857 0.975334 0.305242 179 164 156
0.143885 0.976362 0.305242 180 165 156
0.144913 0.979445 0.302158 181 166 159
0.144913 0.980473 0.301131 180 165 158
0.14594 0.979445 0.303186 182 167 159
0.150051 0.979445 0.303186 189 172 164
0.158273 0.980473 0.306269 194 178 170
0.122302 0.919836 0.307297 101 95 92
0.122302 0.920863 0.31038 122 113 109
0.12333 0.924974 0.311408 137 126 120
0.121274 0.928058 0.307297 122 112 108
0.124358 0.928058 0.311408 133 123 118
0.12333 0.933196 0.31038 104 96 92
0.126413 0.919836 0.316547 118 108 102
0.126413 0.920863 0.315519 109 99 93
0.128469 0.91778 0.315519 113 105 100
0.128469 0.918808 0.318602 113 104 98
0.129496 0.918808 0.31963 116 106 100
0.13258 0.91778 0.321686 125 115 109
0.13258 0.918808 0.322713 128 118 112
0.126413 0.926002 0.315519 119 108 103
0.129496 0.928058 0.317575 105 95 91
0.13258 0.929085 0.322713 112 103 99
0.130524 0.930113 0.320658 107 99 96
0.119219 0.93628 0.307297 116 108 105
0.121274 0.937307 0.31038 140 128 122
0.12333 0.941418 0.31038 159 142 134
0.12333 0.942446 0.309353 126 104 105
0.12333 0.947585 0.307297 157 157 164
0.130524 0.934224 0.320658 135 124 119
0.13258 0.938335 0.321686 102 82 84
0.127441 0.945529 0.312436 148 147 153
0.125385 0.948613 0.308325 86 89 107
0.130524 0.948613 0.314491 154 155 162
0.130524 0.944502 0.316547 141 137 144
0.13258 0.944502 0.318602 100 93 110
0.13258 0.947585 0.317575 145 146 155
0.13258 0.94964 0.315519 120 123 136
0.133607 0.921891 0.322713 126 114 106
0.136691 0.91778 0.325797 141 129 124
0.134635 0.924974 0.324769 105 95 89
0.138746 0.920863 0.32888 135 125 120
0.140802 0.921891 0.329908 123 113 108
0.140802 0.922919 0.330935 131 121 116
0.140802 0.923947 0.329908 126 117 112
0.134635 0.926002 0.323741 85 77 73
0.137718 0.932169 0.326824 143 131 126
0.137718 0.931141 0.327852 147 136 132
0.137718 0.933196 0.327852 150 138 133
0.139774 0.930113 0.32888 148 138 135
0.140802 0.930113 0.329908 151 141 138
0.142857 0.91778 0.329908 134 123 118
0.141829 0.919836 0.330935 120 111 106
0.141829 0.923947 0.330935 140 130 126
0.143885 0.922919 0.331963 125 118 116
0.144913 0.921891 0.331963 130 123 121
0.144913 0.924974 0.332991 150 140 136
0.146968 0.919836 0.331963 132 122 118
0.149024 0.91778 0.331963 146 135 130
0.146968 0.922919 0.332991 153 143 140
0.14594 0.923947 0.332991 152 142 139
0.146968 0.924974 0.332991 154 143 138
0.146968 0.933196 0.32888 169 153 142
0.147996 0.933196 0.329908 163 147 137
0.142857 0.926002 0.331963 137 126 120
0.14594 0.926002 0.332991 153 142 138
0.14594 0.92703 0.331963 144 133 128
0.136691 0.939363 0.322713 117 122 132
0.136691 0.945529 0.321686 154 151 156
0.135663 0.94964 0.318602 102 110 127
0.138746 0.943474 0.322713 129 133 141
0.138746 0.947585 0.321686 88 91 107
0.135663 0.93628 0.323741 134 116 112
0.136691 0.937307 0.323741 72 63 74
0.136691 0.938335 0.324769 68 70 81
0.137718 0.935252 0.325797 146 131 124
0.140802 0.935252 0.326824 145 128 119
0.140802 0.938335 0.325797 90 84 83
0.138746 0.942446 0.323741 81 83 99
0.140802 0.945529 0.324769 97 93 105
0.140802 0.94964 0.323741 138 134 140
0.141829 0.944502 0.324769 80 80 89
0.143885 0.944502 0.326824 103 94 92
0.146968 0.942446 0.327852 151 139 132
0.149024 0.945529 0.32888 156 144 139
0.14594 0.948613 0.326824 108 99 95
0.130524 0.953751 0.31038 129 131 143
0.135663 0.955807 0.315519 85 85 99
0.138746 0.952724 0.318602 77 74 87
0.137718 0.952724 0.31963 104 97 108
0.137718 0.965057 0.314491 81 86 99
0.141829 0.951696 0.322713 64 67 85
0.143885 0.95889 0.320658 71 76 91
0.142857 0.966084 0.316547 111 110 114
0.146968 0.964029 0.320658 103 99 100
0.149024 0.965057 0.321686 151 141 136
0.144913 0.953751 0.323741 84 87 98
0.14594 0.950668 0.326824 91 84 83
0.147996 0.950668 0.326824 129 119 114
0.146968 0.957862 0.324769 74 79 90
0.147996 0.961973 0.323741 73 72 80
0.149024 0.960946 0.323741 73 75 81
0.133607 0.969168 0.308325 105 103 111
0.134635 0.970195 0.308325 111 106 108
0.135663 0.967112 0.31038 79 83 94
0.136691 0.969168 0.309353 111 106 111
0.137718 0.967112 0.312436 82 80 89
0.140802 0.971223 0.309353 175 160 153
0.144913 0.969168 0.313464 177 162 154
0.143885 0.973279 0.308325 179 163 155
0.146968 0.970195 0.314491 181 165 157
0.147996 0.972251 0.311408 180 165 157
0.144913 0.96814 0.316547 171 159 153
0.144913 0.967112 0.317575 160 149 146
0.144913 0.969168 0.315519 177 162 155
0.147996 0.967112 0.318602 174 161 155
0.147996 0.970195 0.315519 182 166 157
0.149024 0.975334 0.309353 181 166 158
0.151079 0.91778 0.331963 151 140 134
0.150051 0.920863 0.331963 158 145 138
0.15519 0.921891 0.331963 150 137 130
0.157246 0.924974 0.332991 154 142 136
0.152107 0.929085 0.330935 158 143 135
0.153135 0.930113 0.330935 157 144 136
0.156218 0.928058 0.332991 155 143 136
0.157246 0.929085 0.332991 158 144 138
0.157246 0.931141 0.332991 160 147 139
0.159301 0.91778 0.334018 143 133 128
0.162384 0.923947 0.335046 157 145 139
0.160329 0.933196 0.334018 129 120 117
0.16444 0.926002 0.335046 158 145 139
0.162384 0.930113 0.335046 155 144 140
0.151079 0.93628 0.329908 159 145 137
0.154162 0.934224 0.331963 158 144 137
0.150051 0.944502 0.32888 157 146 141
0.150051 0.945529 0.327852 158 146 140
0.153135 0.945529 0.32888 165 151 145
0.154162 0.943474 0.329908 162 150 144
0.156218 0.947585 0.329908 170 156 149
0.160329 0.941418 0.332991 151 140 137
0.165468 0.937307 0.335046 158 148 145
0.161357 0.945529 0.332991 172 158 151
0.162384 0.945529 0.331963 173 159 152
0.172662 0.918808 0.337102 159 148 143
0.171634 0.921891 0.337102 159 146 140
0.168551 0.926002 0.336074 160 147 141
0.17369 0.926002 0.337102 162 150 144
0.170606 0.932169 0.337102 161 149 145
0.174717 0.91778 0.338129 127 123 124
0.174717 0.924974 0.337102 162 150 144
0.179856 0.91778 0.339157 107 107 111
0.181912 0.921891 0.339157 159 146 140
0.177801 0.933196 0.338129 164 151 145
0.166495 0.937307 0.336074 167 154 148
0.168551 0.937307 0.336074 168 155 148
0.170606 0.935252 0.336074 159 148 143
0.172662 0.93628 0.337102 169 156 149
0.17369 0.939363 0.337102 171 157 149
0.166495 0.942446 0.335046 172 158 151
0.169579 0.943474 0.335046 174 160 153
0.17369 0.945529 0.335046 173 159 152
0.181912 0.937307 0.338129 169 156 149
0.176773 0.946557 0.335046 177 162 155
0.177801 0.947585 0.335046 179 164 157
0.177801 0.946557 0.336074 176 162 155
0.178828 0.948613 0.335046 180 166 159
0.179856 0.946557 0.336074 175 161 154
0.150051 0.963001 0.322713 120 112 110
0.150051 0.952724 0.326824 153 139 131
0.152107 0.951696 0.327852 166 152 144
0.150051 0.954779 0.326824 132 120 113
0.150051 0.957862 0.325797 73 69 71
0.153135 0.955807 0.326824 169 154 145
0.153135 0.956835 0.325797 168 153 144
0.157246 0.950668 0.329908 173 159 151
0.159301 0.950668 0.329908 175 161 153
0.160329 0.951696 0.329908 176 161 154
0.161357 0.952724 0.329908 175 161 154
0.161357 0.954779 0.329908 176 162 155
0.161357 0.956835 0.327852 179 165 158
0.162384 0.950668 0.330935 176 161 154
0.162384 0.952724 0.330935 176 161 154
0.165468 0.950668 0.331963 178 164 157
0.160329 0.960946 0.326824 181 165 158
0.161357 0.961973 0.326824 182 167 160
0.165468 0.959918 0.32888 183 167 159
0.16444 0.964029 0.325797 186 171 163
0.152107 0.972251 0.313464 183 167 160
0.153135 0.972251 0.314491 182 167 160
0.154162 0.96814 0.31963 186 170 161
0.15519 0.967112 0.321686 182 167 159
0.15519 0.978417 0.307297 194 178 170
0.160329 0.971223 0.318602 187 171 163
0.161357 0.973279 0.317575 193 177 169
0.163412 0.970195 0.320658 191 174 165
0.163412 0.969168 0.321686 190 173 164
0.162384 0.974306 0.315519 187 172 165
0.160329 0.976362 0.313464 195 179 171
0.165468 0.982528 0.307297 195 183 180
0.167523 0.955807 0.330935 183 168 161
0.168551 0.954779 0.330935 183 168 161
0.168551 0.956835 0.330935 184 169 161
0.170606 0.957862 0.329908 183 168 160
0.170606 0.950668 0.334018 180 165 158
0.168551 0.965057 0.324769 191 175 168
0.171634 0.95889 0.329908 185 169 160
0.174717 0.951696 0.334018 179 164 158
0.176773 0.951696 0.334018 182 167 160
0.176773 0.955807 0.331963 185 170 162
0.181912 0.952724 0.334018 181 166 159
0.181912 0.954779 0.332991 184 170 162
0.179856 0.960946 0.329908 190 174 165
0.180884 0.963001 0.32888 188 172 164
0.167523 0.970195 0.320658 194 178 170
0.166495 0.973279 0.318602 195 179 171
0.169579 0.971223 0.31963 199 182 174
0.171634 0.980473 0.309353 186 175 173
0.166495 0.976362 0.315519 202 185 177
0.175745 0.978417 0.312436 201 184 174
0.177801 0.981501 0.308325 203 185 175
0.179856 0.978417 0.314491 199 180 169
0.174717 0.975334 0.316547 201 183 173
0.175745 0.975334 0.317575 200 182 171
0.181912 0.97739 0.315519 200 180 168
0.169579 0.967112 0.323741 196 180 172
0.129496 0.987667 0.242549 145 140 141
0.131552 0.99075 0.242549 183 176 179
0.130524 0.989722 0.245632 152 144 142
0.127441 0.984584 0.252826 176 160 150
0.127441 0.985611 0.25591 187 170 161
0.129496 0.987667 0.249743 142 127 116
0.129496 0.987667 0.253854 151 133 119
0.127441 0.983556 0.262076 186 171 163
0.131552 0.986639 0.263104 193 176 167
0.131552 0.986639 0.265159 192 176 168
0.127441 0.983556 0.266187 185 171 165
0.130524 0.985611 0.26927 193 177 170
0.130524 0.985611 0.271326 192 176 170
0.135663 0.993833 0.241521 180 177 183
0.135663 0.994861 0.242549 183 181 187
0.135663 0.994861 0.244604 189 185 192
0.138746 0.995889 0.244604 182 177 180
0.140802 0.995889 0.242549 178 170 172
0.139774 0.995889 0.243577 180 174 175
0.139774 0.996917 0.244604 177 171 173
0.137718 0.995889 0.247688 178 173 177
0.137718 0.993833 0.251799 157 152 155
0.140802 0.993833 0.256937 120 108 101
0.137718 0.995889 0.251799 175 170 173
0.140802 0.995889 0.254882 159 154 157
0.139774 0.995889 0.25591 148 143 145
0.141829 0.995889 0.241521 185 174 173
0.141829 0.995889 0.243577 177 169 170
0.142857 0.997944 0.248715 168 161 163
0.149024 0.997944 0.248715 148 136 129
0.144913 0.998972 0.251799 164 158 160
0.141829 0.997944 0.253854 174 169 172
0.141829 0.997944 0.25591 162 156 158
0.146968 0.998972 0.251799 158 152 154
0.147996 0.998972 0.254882 166 160 163
0.133607 0.989722 0.260021 194 175 164
0.134635 0.988695 0.262076 193 176 167
0.133607 0.986639 0.268243 197 181 173
0.137718 0.99075 0.267215 190 176 170
0.139774 0.99075 0.267215 180 168 163
0.138746 0.989722 0.273381 191 176 171
0.138746 0.991778 0.258993 159 138 127
0.140802 0.993833 0.261048 151 131 122
0.140802 0.991778 0.265159 180 165 159
0.141829 0.994861 0.258993 115 103 98
0.144913 0.993833 0.265159 176 156 146
0.142857 0.996917 0.257965 133 127 128
0.146968 0.998972 0.260021 139 136 142
0.149024 0.998972 0.257965 138 136 142
0.14594 0.995889 0.263104 130 121 118
0.14594 0.993833 0.26927 197 180 172
0.149024 0.994861 0.267215 186 167 157
0.147996 0.994861 0.268243 191 172 163
0.149024 0.993833 0.270298 200 182 173
0.13258 0.985611 0.277492 196 180 172
0.13258 0.983556 0.281603 189 174 167
0.133607 0.985611 0.274409 195 181 175
0.133607 0.985611 0.27852 198 182 174
0.139774 0.988695 0.27852 199 184 177
0.133607 0.983556 0.284687 192 177 170
0.133607 0.983556 0.286742 188 172 164
0.135663 0.983556 0.286742 191 174 165
0.141829 0.99075 0.277492 198 183 176
0.143885 0.99075 0.277492 189 174 168
0.142857 0.989722 0.280576 198 185 181
0.144913 0.99075 0.27852 191 177 171
0.143885 0.991778 0.274409 199 183 175
0.143885 0.991778 0.276465 192 177 171
0.14594 0.991778 0.276465 195 179 171
0.146968 0.992806 0.276465 195 180 172
0.143885 0.985611 0.290853 182 168 162
0.141829 0.983556 0.294964 184 169 162
0.147996 0.986639 0.293936 188 173 166
0.149024 0.988695 0.290853 190 175 167
0.153135 0.993833 0.242549 151 136 125
0.153135 0.994861 0.245632 157 141 131
0.15519 0.994861 0.245632 185 168 159
0.153135 0.997944 0.254882 186 174 171
0.154162 0.996917 0.250771 176 159 149
0.158273 0.994861 0.244604 196 179 169
0.159301 0.994861 0.243577 197 180 170
0.161357 0.993833 0.242549 200 183 173
0.158273 0.994861 0.24666 195 178 168
0.161357 0.994861 0.247688 201 183 172
0.162384 0.993833 0.241521 201 183 173
0.162384 0.994861 0.248715 203 184 173
0.163412 0.994861 0.247688 203 185 174
0.160329 0.994861 0.250771 199 181 171
0.163412 0.994861 0.249743 204 186 175
0.16444 0.996917 0.256937 207 189 179
0.150051 0.998972 0.258993 150 148 155
0.151079 0.998972 0.260021 169 165 170
0.152107 0.998972 0.261048 173 168 172
0.154162 0.995889 0.267215 193 183 182
0.156218 0.995889 0.267215 172 165 167
0.159301 0.996917 0.265159 208 191 182
0.162384 0.995889 0.271326 210 194 187
0.166495 0.994861 0.244604 203 185 176
0.169579 0.993833 0.244604 204 187 178
0.171634 0.993833 0.242549 207 191 182
0.169579 0.994861 0.249743 208 190 180
0.174717 0.994861 0.252826 213 195 185
0.177801 0.994861 0.253854 212 193 183
0.175745 0.995889 0.256937 214 195 184
0.179856 0.994861 0.251799 209 191 182
0.180884 0.994861 0.256937 214 195 184
0.172662 0.996917 0.263104 216 198 188
0.175745 0.996917 0.257965 215 196 185
0.176773 0.996917 0.258993 214 196 186
0.176773 0.996917 0.261048 214 196 187
0.175745 0.996917 0.264132 216 198 189
0.177801 0.996917 0.264132 214 197 188
0.175745 0.995889 0.270298 219 200 191
0.151079 0.99075 0.284687 195 180 172
0.150051 0.989722 0.28777 191 176 169
0.154162 0.989722 0.289825 194 179 172
0.156218 0.993833 0.275437 206 190 183
0.150051 0.991778 0.282631 197 180 172
0.153135 0.991778 0.283659 198 182 175
0.161357 0.99075 0.286742 207 191 184
0.162384 0.99075 0.28777 207 190 183
0.159301 0.994861 0.275437 210 194 186
0.158273 0.992806 0.279548 208 191 183
0.165468 0.994861 0.277492 196 185 184
0.159301 0.992806 0.282631 206 190 182
0.151079 0.987667 0.293936 190 174 167
0.157246 0.988695 0.291881 200 184 176
0.150051 0.983556 0.299075 189 173 165
0.160329 0.986639 0.298047 202 184 174
0.161357 0.989722 0.292909 203 185 177
0.163412 0.986639 0.29702 205 187 177
0.16444 0.986639 0.298047 204 186 177
0.162384 0.988695 0.292909 203 185 177
0.163412 0.989722 0.290853 203 186 178
0.163412 0.984584 0.301131 198 183 176
0.165468 0.985611 0.300103 202 185 177
0.165468 0.986639 0.299075 202 185 176
0.168551 0.99075 0.289825 209 191 182
0.170606 0.99075 0.28777 210 193 184
0.171634 0.99075 0.288798 210 193 185
0.166495 0.994861 0.274409 207 192 186
0.169579 0.994861 0.277492 193 183 182
0.170606 0.993833 0.279548 203 193 191
0.172662 0.992806 0.281603 192 184 185
0.17369 0.992806 0.280576 207 194 191
0.169579 0.992806 0.284687 202 188 184
0.17369 0.992806 0.282631 186 178 180
0.17369 0.991778 0.284687 206 194 191
0.168551 0.987667 0.29702 206 189 180
0.171634 0.989722 0.292909 209 191 182
0.172662 0.987667 0.295992 205 187 177
0.166495 0.986639 0.300103 203 186 177
0.169579 0.985611 0.302158 205 187 178
0.170606 0.984584 0.304214 202 186 177
0.176773 0.988695 0.292909 209 190 181
0.177801 0.987667 0.29702 207 188 178
0.180884 0.986639 0.29702 204 187 178
0.181912 0.987667 0.293936 208 190 179
0.179856 0.987667 0.294964 207 189 179
0.177801 0.985611 0.302158 201 183 172
0.176773 0.984584 0.304214 199 181 171
0.182939 0.524152 0.065776 96 84 75
0.183967 0.523124 0.065776 97 85 75
0.18705 0.529291 0.065776 96 84 75
0.182939 0.531346 0.06372 96 84 74
0.183967 0.532374 0.06372 97 85 74
0.186023 0.537513 0.065776 96 84 74
0.188078 0.533402 0.064748 97 84 74
0.18705 0.535457 0.065776 96 84 74
0.18705 0.538541 0.065776 96 84 74
0.192189 0.523124 0.066804 96 84 74
0.192189 0.529291 0.067831 96 84 74
0.194245 0.529291 0.067831 96 84 74
0.195272 0.527235 0.067831 96 84 74
0.194245 0.531346 0.067831 96 84 74
0.1963 0.536485 0.066804 95 83 73
0.188078 0.539568 0.065776 96 84 74
0.190134 0.540596 0.064748 96 84 74
0.189106 0.541624 0.064748 96 84 74
0.190134 0.542652 0.064748 96 84 75
0.182939 0.54779 0.06372 120 116 118
0.186023 0.552929 0.065776 108 105 108
0.18705 0.549846 0.065776 115 112 114
0.190134 0.549846 0.066804 117 114 115
0.18705 0.554985 0.066804 111 109 111
0.191161 0.541624 0.064748 96 84 74
0.193217 0.539568 0.065776 96 83 73
0.192189 0.543679 0.065776 93 83 77
0.192189 0.546763 0.066804 130 125 126
0.194245 0.544707 0.066804 100 91 87
0.195272 0.543679 0.065776 94 84 75
0.1963 0.543679 0.066804 95 84 75
0.198356 0.545735 0.068859 102 95 90
0.194245 0.552929 0.067831 109 105 106
0.1963 0.548818 0.068859 132 128 129
0.197328 0.549846 0.068859 129 125 126
0.201439 0.523124 0.067831 95 83 73
0.202467 0.527235 0.068859 96 84 73
0.204522 0.526208 0.069887 96 85 75
0.20555 0.528263 0.070915 96 84 73
0.199383 0.533402 0.069887 94 82 72
0.202467 0.53443 0.071942 94 82 72
0.200411 0.535457 0.070915 94 82 72
0.203494 0.537513 0.071942 94 82 72
0.212744 0.523124 0.075026 100 87 77
0.212744 0.528263 0.076053 105 92 81
0.207605 0.53443 0.07297 94 82 72
0.208633 0.538541 0.073998 95 83 73
0.199383 0.539568 0.069887 95 83 72
0.199383 0.540596 0.068859 95 83 72
0.201439 0.539568 0.069887 95 83 72
0.199383 0.543679 0.068859 94 83 74
0.201439 0.54779 0.069887 114 108 107
0.202467 0.54779 0.070915 110 104 101
0.200411 0.551901 0.070915 96 91 91
0.20555 0.551901 0.073998 100 94 91
0.210689 0.541624 0.075026 95 83 73
0.210689 0.544707 0.076053 95 83 73
0.209661 0.548818 0.075026 103 96 93
0.207605 0.552929 0.075026 102 95 93
0.212744 0.538541 0.078109 93 82 72
0.2148 0.537513 0.079137 93 81 72
0.211716 0.544707 0.077081 94 82 72
0.2148 0.545735 0.079137 94 82 72
0.212744 0.554985 0.078109 131 127 129
0.184995 0.559096 0.067831 103 101 103
0.183967 0.562179 0.067831 105 102 104
0.186023 0.561151 0.068859 103 101 102
0.186023 0.563207 0.068859 103 100 101
0.190134 0.561151 0.069887 93 91 92
0.189106 0.563207 0.069887 94 92 93
0.184995 0.570401 0.070915 77 74 74
0.189106 0.568345 0.070915 86 83 83
0.189106 0.569373 0.071942 81 78 79
0.194245 0.55704 0.069887 103 100 101
0.194245 0.563207 0.071942 94 91 92
0.195272 0.558068 0.069887 102 99 100
0.195272 0.561151 0.070915 101 98 99
0.198356 0.563207 0.073998 92 89 90
0.192189 0.56629 0.071942 85 82 83
0.192189 0.567318 0.07297 85 82 82
0.191161 0.568345 0.07297 84 81 82
0.1963 0.567318 0.073998 86 83 83
0.197328 0.56629 0.073998 90 87 88
0.18705 0.579651 0.054471 46 50 57
0.188078 0.578623 0.057554 48 52 57
0.182939 0.583762 0.049332 107 101 99
0.18705 0.583762 0.051387 109 102 100
0.189106 0.583762 0.051387 109 102 100
0.191161 0.579651 0.056526 47 51 57
0.191161 0.578623 0.058582 49 52 58
0.193217 0.579651 0.056526 48 50 55
0.194245 0.579651 0.057554 51 52 55
0.192189 0.583762 0.052415 109 102 100
0.191161 0.584789 0.052415 109 103 101
0.192189 0.584789 0.053443 108 101 99
0.193217 0.587873 0.055498 109 102 100
0.183967 0.578623 0.067831 51 55 61
0.184995 0.578623 0.064748 50 54 60
0.186023 0.578623 0.067831 54 57 63
0.188078 0.578623 0.06372 52 56 61
0.190134 0.578623 0.065776 53 56 61
0.182939 0.572456 0.07297 70 69 71
0.183967 0.573484 0.07297 69 68 70
0.183967 0.578623 0.071942 52 56 61
0.188078 0.574512 0.073998 67 66 67
0.18705 0.574512 0.075026 66 65 67
0.190134 0.573484 0.075026 61 60 63
0.18705 0.577595 0.073998 58 60 64
0.18705 0.578623 0.07297 53 55 60
0.189106 0.577595 0.073998 56 58 62
0.189106 0.576567 0.075026 62 62 66
0.193217 0.578623 0.062693 50 52 57
0.192189 0.578623 0.067831 54 56 61
0.194245 0.577595 0.066804 54 56 60
0.195272 0.578623 0.062693 52 53 57
0.197328 0.578623 0.062693 93 90 90
0.193217 0.573484 0.076053 62 61 62
0.191161 0.578623 0.068859 54 57 62
0.192189 0.578623 0.071942 54 57 62
0.191161 0.578623 0.07297 53 55 60
0.194245 0.576567 0.073998 62 62 66
0.195272 0.577595 0.071942 54 55 59
0.197328 0.576567 0.073998 57 59 62
0.198356 0.576567 0.075026 63 63 65
0.199383 0.564234 0.073998 94 91 92
0.202467 0.565262 0.076053 91 88 89
0.212744 0.569373 0.075026 88 83 82
0.211716 0.570401 0.073998 94 88 86
0.200411 0.579651 0.059609 71 68 68
0.199383 0.580678 0.056526 86 81 79
0.200411 0.581706 0.056526 108 103 101
0.199383 0.583762 0.057554 103 96 94
0.200411 0.582734 0.057554 114 107 105
0.199383 0.584789 0.056526 103 96 94
0.201439 0.584789 0.058582 100 94 92
0.201439 0.577595 0.067831 69 67 68
0.204522 0.57554 0.073998 51 54 60
0.206578 0.574512 0.076053 65 65 69
0.20555 0.576567 0.071942 52 51 53
0.202467 0.585817 0.060637 104 97 95
0.201439 0.586845 0.060637 103 96 94
0.203494 0.580678 0.060637 75 71 71
0.20555 0.581706 0.061665 110 103 101
0.206578 0.581706 0.062693 107 100 98
0.20555 0.583762 0.061665 104 97 95
0.204522 0.585817 0.062693 102 95 92
0.203494 0.587873 0.06372 102 95 91
0.208633 0.57554 0.071942 79 76 76
0.207605 0.57554 0.075026 62 61 63
0.212744 0.574512 0.070915 90 85 83
0.213772 0.573484 0.071942 94 87 84
0.2148 0.576567 0.069887 105 97 92
0.213772 0.579651 0.068859 100 90 84
0.208633 0.580678 0.069887 77 73 71
0.211716 0.581706 0.070915 64 59 56
0.2148 0.580678 0.068859 101 91 85
0.198356 0.574512 0.078109 72 70 72
0.202467 0.569373 0.078109 86 82 82
0.204522 0.567318 0.078109 85 82 82
0.204522 0.570401 0.079137 87 84 85
0.206578 0.569373 0.080164 87 84 85
0.208633 0.556012 0.077081 102 99 100
0.208633 0.558068 0.077081 102 99 100
0.209661 0.56629 0.081192 95 92 93
0.209661 0.569373 0.077081 80 77 78
0.212744 0.564234 0.083248 98 95 96
0.2148 0.56629 0.083248 83 80 81
0.212744 0.568345 0.078109 81 79 80
0.213772 0.569373 0.078109 79 76 78
0.202467 0.573484 0.078109 79 77 80
0.207605 0.574512 0.077081 59 59 63
0.220966 0.523124 0.081192 102 91 82
0.221994 0.527235 0.084275 102 89 78
0.223022 0.528263 0.084275 100 87 76
0.217883 0.532374 0.081192 100 86 74
0.218911 0.533402 0.081192 99 86 74
0.220966 0.535457 0.083248 99 86 74
0.227133 0.527235 0.087359 100 88 78
0.229188 0.524152 0.088386 132 126 125
0.224049 0.53443 0.085303 96 83 71
0.225077 0.53443 0.088386 94 81 68
0.226105 0.533402 0.088386 93 80 67
0.227133 0.533402 0.089414 93 80 68
0.217883 0.540596 0.083248 92 81 71
0.218911 0.540596 0.084275 92 80 70
0.220966 0.540596 0.084275 93 81 70
0.220966 0.544707 0.084275 94 82 72
0.220966 0.543679 0.085303 93 82 72
0.223022 0.543679 0.085303 94 82 72
0.223022 0.545735 0.085303 95 83 72
0.218911 0.549846 0.083248 119 112 111
0.215827 0.553957 0.080164 132 128 130
0.226105 0.539568 0.088386 94 81 70
0.227133 0.539568 0.089414 94 82 70
0.224049 0.543679 0.086331 94 82 72
0.225077 0.543679 0.087359 94 82 71
0.229188 0.545735 0.09147 94 81 69
0.225077 0.54779 0.087359 94 82 73
0.224049 0.550874 0.088386 129 124 124
0.22816 0.54779 0.090442 94 82 72
0.236382 0.523124 0.098664 127 121 119
0.23741 0.526208 0.100719 90 83 78
0.23741 0.530319 0.100719 98 91 87
0.232271 0.531346 0.094553 92 79 69
0.233299 0.536485 0.096608 90 78 67
0.23741 0.53443 0.100719 84 74 67
0.239466 0.536485 0.102775 78 71 67
0.241521 0.523124 0.105858 123 117 117
0.242549 0.524152 0.105858 123 118 117
0.240493 0.53443 0.103803 84 78 74
0.241521 0.531346 0.107914 102 99 100
0.233299 0.540596 0.096608 92 80 69
0.235355 0.544707 0.100719 88 78 71
0.238438 0.539568 0.100719 96 90 87
0.238438 0.543679 0.102775 95 91 90
0.238438 0.545735 0.102775 99 94 93
0.234327 0.54779 0.100719 84 75 68
0.232271 0.553957 0.100719 124 120 120
0.235355 0.54779 0.101747 89 83 81
0.234327 0.551901 0.102775 77 73 72
0.236382 0.552929 0.103803 84 79 78
0.239466 0.553957 0.107914 108 104 104
0.240493 0.541624 0.102775 99 96 97
0.242549 0.540596 0.105858 108 105 107
0.240493 0.544707 0.105858 84 81 81
0.244604 0.541624 0.108941 92 88 88
0.216855 0.572456 0.075026 90 84 81
0.217883 0.572456 0.076053 90 85 82
0.218911 0.573484 0.075026 92 84 80
0.216855 0.578623 0.069887 86 77 70
0.219938 0.577595 0.07297 95 86 80
0.220966 0.576567 0.076053 97 88 83
0.218911 0.580678 0.070915 92 83 75
0.218911 0.582734 0.070915 91 81 74
0.223022 0.582734 0.075026 94 85 78
0.220966 0.585817 0.073998 98 88 80
0.215827 0.556012 0.08222 121 118 120
0.216855 0.55704 0.08222 117 114 115
0.216855 0.558068 0.083248 112 108 109
0.218911 0.556012 0.085303 125 121 122
0.217883 0.562179 0.086331 102 99 100
0.219938 0.556012 0.085303 125 121 123
0.219938 0.559096 0.088386 108 106 107
0.219938 0.563207 0.088386 97 93 94
0.223022 0.562179 0.090442 104 101 102
0.215827 0.564234 0.084275 88 86 87
0.217883 0.571429 0.077081 89 83 80
0.216855 0.568345 0.083248 78 77 79
0.216855 0.565262 0.086331 85 82 83
0.216855 0.56629 0.085303 82 80 81
0.218911 0.565262 0.088386 92 90 91
0.217883 0.567318 0.085303 85 82 83
0.218911 0.568345 0.085303 80 78 79
0.219938 0.567318 0.087359 84 82 83
0.221994 0.565262 0.090442 93 90 91
0.225077 0.55704 0.09147 113 110 111
0.225077 0.559096 0.09147 99 95 96
0.227133 0.556012 0.092497 117 113 114
0.226105 0.559096 0.092497 96 93 94
0.224049 0.569373 0.088386 86 81 80
0.227133 0.568345 0.092497 83 79 79
0.227133 0.556012 0.094553 116 112 113
0.226105 0.563207 0.094553 98 95 95
0.22816 0.561151 0.096608 96 93 93
0.230216 0.560123 0.100719 93 89 90
0.230216 0.562179 0.101747 92 89 89
0.227133 0.564234 0.096608 89 85 85
0.22816 0.565262 0.098664 83 80 80
0.229188 0.564234 0.098664 81 77 76
0.229188 0.565262 0.099692 87 84 84
0.229188 0.56629 0.098664 82 79 80
0.231244 0.567318 0.097636 105 105 108
0.230216 0.56629 0.099692 74 72 73
0.229188 0.569373 0.093525 88 83 81
0.230216 0.568345 0.095581 98 96 97
0.223022 0.577595 0.077081 92 83 77
0.230216 0.578623 0.084275 115 104 96
0.230216 0.579651 0.083248 116 104 96
0.231244 0.576567 0.085303 110 100 92
0.225077 0.581706 0.079137 95 84 77
0.225077 0.582734 0.077081 94 84 77
0.225077 0.587873 0.078109 106 94 85
0.22816 0.586845 0.083248 106 95 87
0.232271 0.556012 0.100719 119 115 115
0.232271 0.55704 0.101747 104 101 102
0.232271 0.560123 0.102775 75 74 75
0.238438 0.560123 0.108941 92 88 87
0.238438 0.562179 0.108941 99 94 93
0.234327 0.568345 0.097636 126 124 127
0.236382 0.569373 0.096608 133 131 134
0.233299 0.565262 0.101747 68 68 71
0.236382 0.565262 0.102775 63 62 64
0.238438 0.565262 0.10483 59 60 62
0.244604 0.558068 0.108941 53 51 51
0.247688 0.55704 0.108941 79 73 70
0.240493 0.571429 0.098664 88 82 79
0.242549 0.564234 0.106886 41 43 48
0.24666 0.567318 0.10483 79 73 70
0.232271 0.572456 0.089414 93 85 80
0.233299 0.572456 0.090442 93 85 80
0.23741 0.576567 0.092497 128 122 120
0.233299 0.580678 0.089414 89 79 71
0.232271 0.583762 0.089414 86 76 69
0.234327 0.587873 0.09147 97 87 79
0.23741 0.579651 0.093525 140 133 132
0.238438 0.582734 0.093525 149 145 147
0.238438 0.583762 0.094553 147 146 150
0.239466 0.583762 0.095581 145 143 148
0.23741 0.587873 0.093525 143 138 140
0.238438 0.584789 0.095581 146 145 149
0.239466 0.585817 0.097636 131 128 130
0.243577 0.574512 0.100719 90 81 75
0.240493 0.579651 0.096608 121 118 119
0.242549 0.577595 0.098664 90 81 75
0.243577 0.572456 0.102775 89 81 76
0.244604 0.574512 0.101747 97 87 79
0.247688 0.579651 0.105858 90 80 71
0.242549 0.586845 0.103803 100 90 82
0.245632 0.585817 0.105858 91 80 72
0.186023 0.590956 0.051387 109 102 100
0.18705 0.589928 0.051387 108 102 99
0.190134 0.590956 0.053443 110 102 99
0.18705 0.593011 0.052415 110 103 100
0.18705 0.594039 0.053443 110 103 100
0.18705 0.595067 0.052415 110 103 100
0.186023 0.59815 0.053443 111 104 102
0.182939 0.604317 0.052415 111 103 100
0.184995 0.603289 0.053443 109 102 99
0.186023 0.604317 0.053443 112 105 102
0.18705 0.59815 0.054471 110 103 100
0.188078 0.59815 0.055498 109 102 99
0.188078 0.599178 0.054471 109 102 100
0.188078 0.604317 0.055498 110 103 100
0.192189 0.591984 0.056526 112 104 101
0.192189 0.594039 0.058582 112 104 100
0.1963 0.5889 0.057554 106 99 97
0.183967 0.604317 0.071942 47 46 48
0.18705 0.604317 0.075026 48 47 48
0.194245 0.594039 0.060637 112 104 99
0.1963 0.591984 0.060637 109 101 98
0.194245 0.599178 0.061665 112 104 100
0.192189 0.602261 0.060637 112 104 101
0.192189 0.604317 0.061665 113 104 100
0.193217 0.603289 0.062693 113 104 99
0.1963 0.599178 0.06372 109 100 96
0.195272 0.604317 0.065776 108 99 95
0.198356 0.601233 0.067831 103 96 92
0.197328 0.604317 0.073998 94 88 85
0.198356 0.604317 0.07297 102 95 92
0.182939 0.606372 0.052415 113 105 102
0.184995 0.6074 0.053443 115 107 103
0.184995 0.608428 0.056526 118 110 106
0.183967 0.609455 0.056526 103 96 93
0.186023 0.609455 0.058582 101 94 91
0.188078 0.6074 0.058582 120 111 107
0.188078 0.608428 0.059609 116 108 104
0.189106 0.605344 0.057554 112 104 100
0.189106 0.606372 0.056526 115 107 103
0.190134 0.605344 0.058582 113 104 100
0.183967 0.6074 0.066804 45 43 44
0.184995 0.608428 0.064748 48 46 46
0.186023 0.609455 0.060637 87 83 82
0.189106 0.608428 0.060637 114 106 101
0.190134 0.6074 0.060637 121 112 108
0.189106 0.608428 0.062693 102 94 90
0.182939 0.606372 0.068859 46 45 46
0.184995 0.605344 0.071942 47 46 47
0.192189 0.605344 0.060637 114 105 101
0.191161 0.6074 0.06372 112 104 100
0.193217 0.605344 0.064748 113 104 99
0.194245 0.605344 0.065776 110 102 98
0.193217 0.606372 0.066804 105 97 94
0.192189 0.606372 0.069887 78 74 72
0.193217 0.606372 0.068859 87 81 77
0.192189 0.605344 0.076053 47 46 47
0.197328 0.605344 0.07297 96 89 86
0.200411 0.5889 0.061665 102 95 92
0.202467 0.590956 0.065776 107 99 96
0.202467 0.591984 0.066804 104 96 92
0.199383 0.594039 0.065776 106 98 94
0.204522 0.590956 0.067831 103 95 92
0.199383 0.600206 0.069887 98 91 89
0.201439 0.597122 0.070915 96 89 86
0.202467 0.59815 0.07297 98 92 89
0.202467 0.600206 0.075026 99 92 89
0.204522 0.601233 0.076053 95 88 85
0.209661 0.593011 0.07297 65 61 60
0.210689 0.594039 0.07297 62 58 56
0.209661 0.596095 0.073998 69 65 64
0.213772 0.590956 0.069887 77 70 64
0.212744 0.594039 0.070915 74 67 63
0.207605 0.59815 0.076053 77 72 70
0.213772 0.600206 0.071942 77 71 67
0.212744 0.59815 0.07297 68 62 58
0.211716 0.600206 0.073998 64 58 55
0.212744 0.601233 0.073998 65 59 55
0.213772 0.601233 0.07297 76 69 66
0.183967 0.601233 0.077081 41 43 46
0.183967 0.601233 0.079137 41 42 45
0.184995 0.602261 0.079137 41 42 46
0.188078 0.603289 0.081192 43 44 46
0.189106 0.603289 0.084275 50 49 50
0.190134 0.603289 0.083248 49 48 50
0.191161 0.603289 0.080164 44 44 47
0.193217 0.603289 0.084275 51 49 50
0.192189 0.603289 0.085303 53 52 53
0.194245 0.604317 0.086331 51 50 52
0.1963 0.604317 0.088386 49 48 49
0.189106 0.609455 0.085303 69 68 68
0.182939 0.615622 0.084275 68 67 68
0.193217 0.605344 0.077081 46 46 48
0.1963 0.605344 0.078109 57 55 56
0.193217 0.6074 0.088386 60 59 60
0.193217 0.609455 0.088386 61 59 61
0.195272 0.608428 0.089414 61 59 60
0.198356 0.605344 0.089414 51 49 50
0.198356 0.606372 0.090442 51 50 51
0.197328 0.6074 0.090442 58 57 58
0.195272 0.614594 0.087359 72 70 71
0.197328 0.614594 0.089414 61 59 60
0.198356 0.613566 0.089414 56 55 56
0.198356 0.618705 0.090442 63 62 64
0.200411 0.603289 0.078109 86 80 77
0.201439 0.603289 0.079137 84 78 76
0.201439 0.604317 0.08222 45 44 45
0.202467 0.604317 0.090442 54 53 53
0.204522 0.604317 0.088386 55 53 54
0.207605 0.603289 0.079137 86 80 77
0.210689 0.601233 0.078109 72 67 65
0.209661 0.604317 0.090442 69 64 62
0.199383 0.605344 0.090442 51 49 49
0.199383 0.612539 0.089414 54 54 55
0.206578 0.605344 0.09147 53 51 52
0.199383 0.614594 0.089414 56 55 56
0.200411 0.613566 0.089414 55 54 55
0.200411 0.61665 0.090442 56 56 58
0.201439 0.613566 0.090442 54 54 55
0.202467 0.615622 0.09147 54 54 55
0.213772 0.606372 0.078109 75 69 66
0.213772 0.605344 0.079137 72 66 62
0.212744 0.605344 0.08222 78 72 69
0.207605 0.605344 0.085303 72 68 66
0.207605 0.605344 0.092497 53 51 51
0.210689 0.605344 0.090442 74 68 64
0.2148 0.606372 0.087359 76 69 64
0.2148 0.6074 0.086331 78 70 65
0.206578 0.615622 0.095581 55 55 56
0.206578 0.618705 0.096608 55 55 56
0.207605 0.605344 0.094553 53 51 51
0.208633 0.605344 0.093525 53 51 51
0.207605 0.6074 0.094553 54 52 52
0.209661 0.605344 0.094553 53 51 51
0.212744 0.606372 0.096608 53 51 51
0.2148 0.606372 0.096608 53 51 51
0.213772 0.605344 0.097636 54 52 51
0.212744 0.610483 0.096608 54 52 53
0.212744 0.612539 0.096608 55 54 55
0.208633 0.613566 0.095581 55 55 56
0.208633 0.617677 0.097636 55 54 56
0.208633 0.618705 0.098664 55 55 56
0.212744 0.615622 0.097636 55 54 55
0.213772 0.61665 0.097636 55 54 55
0.188078 0.653648 0.059609 117 112 111
0.193217 0.652621 0.058582 113 108 108
0.197328 0.651593 0.057554 105 100 100
0.198356 0.652621 0.057554 110 104 104
0.183967 0.645427 0.073998 94 89 88
0.184995 0.649538 0.062693 80 75 72
0.182939 0.64851 0.064748 110 105 104
0.183967 0.652621 0.060637 100 95 94
0.184995 0.652621 0.061665 97 92 91
0.182939 0.647482 0.068859 115 110 109
0.1963 0.645427 0.065776 90 85 82
0.197328 0.643371 0.07297 80 75 73
0.192189 0.647482 0.06372 77 71 69
0.193217 0.646454 0.066804 89 83 81
0.193217 0.650565 0.061665 82 76 73
0.195272 0.649538 0.060637 77 72 70
0.197328 0.646454 0.064748 98 93 91
0.199383 0.649538 0.059609 108 103 102
0.202467 0.650565 0.059609 93 89 88
0.203494 0.653648 0.058582 104 98 95
0.204522 0.653648 0.059609 97 92 90
0.199383 0.647482 0.062693 98 93 91
0.199383 0.646454 0.064748 98 92 91
0.202467 0.647482 0.065776 66 64 66
0.202467 0.650565 0.061665 62 60 59
0.206578 0.647482 0.067831 111 104 102
0.203494 0.651593 0.061665 73 69 69
0.203494 0.650565 0.062693 58 55 55
0.20555 0.653648 0.06372 87 80 76
0.208633 0.642343 0.07297 81 77 76
0.211716 0.642343 0.073998 106 100 98
0.209661 0.650565 0.067831 122 116 115
0.209661 0.646454 0.068859 130 123 121
0.210689 0.649538 0.068859 115 109 107
0.212744 0.647482 0.069887 112 106 104
0.211716 0.650565 0.068859 117 111 110
0.2148 0.652621 0.07297 112 105 103
0.182939 0.624872 0.085303 102 96 95
0.186023 0.623844 0.087359 109 102 100
0.182939 0.627955 0.085303 95 91 89
0.190134 0.622816 0.090442 90 87 86
0.190134 0.624872 0.090442 96 91 89
0.184995 0.632066 0.085303 97 93 92
0.182939 0.634121 0.085303 91 87 86
0.182939 0.637205 0.086331 91 87 86
0.186023 0.637205 0.087359 84 80 79
0.188078 0.637205 0.087359 81 77 76
0.189106 0.634121 0.087359 83 79 79
0.190134 0.635149 0.087359 80 76 76
0.191161 0.623844 0.090442 86 83 83
0.192189 0.624872 0.090442 84 80 81
0.193217 0.623844 0.090442 75 73 73
0.193217 0.625899 0.090442 81 78 77
0.197328 0.622816 0.09147 61 60 62
0.193217 0.632066 0.088386 108 102 99
0.194245 0.633094 0.088386 104 97 95
0.193217 0.631038 0.089414 107 101 99
0.192189 0.634121 0.087359 87 82 81
0.197328 0.63001 0.092497 61 60 61
0.186023 0.644399 0.079137 97 93 93
0.188078 0.643371 0.080164 87 83 82
0.18705 0.644399 0.078109 95 91 91
0.189106 0.643371 0.079137 88 84 83
0.18705 0.643371 0.083248 83 79 78
0.188078 0.643371 0.084275 84 81 80
0.182939 0.63926 0.088386 86 82 82
0.183967 0.640288 0.088386 78 75 76
0.184995 0.63926 0.088386 76 74 75
0.186023 0.63926 0.089414 71 69 70
0.183967 0.643371 0.089414 63 62 64
0.186023 0.642343 0.090442 61 60 61
0.190134 0.638232 0.088386 65 63 64
0.18705 0.641316 0.090442 60 59 61
0.190134 0.63926 0.09147 59 59 61
0.18705 0.643371 0.085303 83 79 79
0.189106 0.643371 0.085303 85 81 81
0.188078 0.642343 0.090442 66 64 65
0.192189 0.643371 0.080164 89 84 84
0.197328 0.642343 0.080164 93 88 87
0.191161 0.638232 0.089414 62 61 63
0.192189 0.638232 0.090442 61 60 62
0.191161 0.641316 0.092497 61 61 62
0.193217 0.63926 0.092497 57 57 60
0.193217 0.641316 0.092497 62 60 61
0.194245 0.640288 0.092497 58 57 59
0.194245 0.642343 0.086331 87 83 83
0.192189 0.643371 0.090442 78 75 75
0.192189 0.642343 0.092497 69 67 68
0.194245 0.642343 0.090442 84 80 80
0.195272 0.642343 0.085303 87 83 82
0.195272 0.642343 0.089414 86 82 82
0.198356 0.641316 0.093525 78 75 76
0.199383 0.633094 0.09147 99 95 93
0.200411 0.633094 0.092497 92 88 87
0.199383 0.635149 0.09147 91 86 85
0.2148 0.633094 0.087359 71 67 65
0.212744 0.633094 0.092497 56 54 55
0.206578 0.627955 0.097636 103 97 96
0.199383 0.631038 0.093525 66 64 64
0.200411 0.637205 0.094553 63 63 65
0.203494 0.633094 0.095581 83 79 78
0.20555 0.634121 0.096608 82 78 76
0.208633 0.626927 0.098664 92 87 86
0.208633 0.625899 0.099692 81 77 76
0.209661 0.625899 0.100719 81 77 77
0.209661 0.626927 0.099692 93 88 86
0.210689 0.626927 0.100719 94 89 87
0.211716 0.623844 0.100719 63 62 62
0.212744 0.628983 0.099692 58 56 58
0.213772 0.628983 0.100719 56 54 56
0.210689 0.625899 0.101747 89 84 84
0.212744 0.623844 0.101747 67 65 65
0.2148 0.624872 0.101747 62 59 59
0.210689 0.63001 0.099692 92 87 86
0.208633 0.635149 0.098664 81 78 78
0.208633 0.636177 0.097636 89 85 86
0.210689 0.636177 0.097636 74 73 74
0.211716 0.633094 0.096608 49 49 51
0.213772 0.633094 0.093525 54 53 54
0.212744 0.63001 0.098664 45 46 49
0.212744 0.634121 0.094553 54 53 54
0.200411 0.641316 0.08222 88 84 84
0.202467 0.640288 0.083248 86 82 82
0.204522 0.640288 0.079137 76 73 74
0.202467 0.640288 0.085303 85 81 81
0.202467 0.640288 0.087359 83 80 79
0.200411 0.642343 0.092497 84 81 81
0.204522 0.640288 0.089414 79 76 76
0.203494 0.642343 0.090442 82 79 79
0.210689 0.63926 0.078109 55 53 53
0.209661 0.63926 0.080164 50 50 52
0.211716 0.63926 0.077081 70 67 66
0.213772 0.638232 0.079137 74 70 69
0.208633 0.638232 0.088386 52 54 58
0.207605 0.638232 0.089414 56 57 60
0.207605 0.640288 0.092497 67 66 68
0.209661 0.638232 0.09147 53 54 56
0.199383 0.638232 0.094553 56 56 59
0.200411 0.641316 0.093525 84 81 82
0.201439 0.63926 0.095581 58 57 58
0.203494 0.63926 0.095581 58 57 59
0.206578 0.63926 0.096608 62 62 65
0.206578 0.638232 0.097636 68 66 68
0.204522 0.642343 0.093525 79 76 76
0.206578 0.642343 0.093525 75 73 74
0.207605 0.640288 0.094553 67 66 68
0.216855 0.5889 0.069887 95 85 78
0.217883 0.5889 0.070915 85 76 68
0.218911 0.5889 0.071942 87 76 68
0.217883 0.591984 0.071942 86 76 69
0.218911 0.590956 0.071942 86 76 69
0.217883 0.596095 0.071942 86 77 70
0.223022 0.591984 0.076053 98 87 78
0.215827 0.600206 0.071942 97 88 82
0.218911 0.59815 0.07297 85 75 67
0.216855 0.603289 0.073998 96 87 81
0.216855 0.604317 0.07297 97 88 82
0.217883 0.602261 0.073998 94 84 77
0.218911 0.601233 0.073998 95 85 77
0.215827 0.605344 0.07297 92 85 80
0.216855 0.605344 0.073998 92 84 79
0.217883 0.605344 0.075026 91 83 77
0.217883 0.606372 0.076053 95 86 81
0.218911 0.604317 0.077081 89 80 73
0.223022 0.597122 0.077081 99 87 76
0.221994 0.600206 0.077081 99 87 77
0.219938 0.603289 0.078109 89 78 70
0.223022 0.601233 0.081192 89 77 67
0.225077 0.591984 0.078109 110 98 89
0.225077 0.590956 0.079137 112 101 92
0.22816 0.5889 0.085303 97 87 79
0.229188 0.591984 0.087359 103 91 82
0.231244 0.590956 0.089414 101 89 81
0.229188 0.593011 0.086331 102 90 81
0.224049 0.59815 0.079137 93 81 72
0.224049 0.59815 0.081192 89 78 69
0.230216 0.597122 0.090442 98 86 76
0.229188 0.604317 0.090442 106 96 89
0.219938 0.604317 0.100719 64 61 59
0.221994 0.604317 0.102775 62 58 58
0.223022 0.603289 0.103803 62 59 59
0.224049 0.602261 0.10483 63 60 59
0.224049 0.603289 0.102775 73 69 68
0.227133 0.604317 0.101747 64 60 60
0.22816 0.603289 0.10483 63 59 58
0.216855 0.6074 0.078109 91 83 78
0.217883 0.6074 0.077081 94 85 80
0.218911 0.6074 0.080164 92 83 77
0.217883 0.6074 0.081192 91 83 79
0.219938 0.605344 0.080164 100 90 84
0.221994 0.605344 0.08222 99 90 84
0.216855 0.6074 0.088386 79 72 67
0.217883 0.6074 0.087359 78 71 66
0.221994 0.6074 0.086331 89 81 77
0.223022 0.6074 0.089414 79 72 67
0.224049 0.605344 0.086331 94 84 76
0.225077 0.606372 0.092497 78 71 67
0.216855 0.605344 0.094553 74 68 66
0.217883 0.605344 0.095581 73 67 65
0.217883 0.608428 0.100719 57 55 55
0.215827 0.609455 0.098664 57 54 54
0.219938 0.605344 0.096608 84 79 77
0.218911 0.606372 0.101747 56 53 53
0.217883 0.6074 0.101747 54 52 52
0.218911 0.6074 0.102775 54 52 51
0.217883 0.609455 0.101747 56 54 54
0.217883 0.612539 0.101747 59 57 56
0.220966 0.605344 0.102775 58 55 55
0.220966 0.605344 0.10483 58 55 55
0.223022 0.606372 0.106886 57 54 54
0.221994 0.6074 0.105858 56 53 53
0.219938 0.611511 0.103803 57 54 54
0.220966 0.611511 0.10483 57 55 55
0.223022 0.610483 0.107914 54 52 52
0.215827 0.617677 0.100719 55 54 55
0.217883 0.618705 0.101747 56 54 54
0.221994 0.61665 0.10483 54 52 52
0.223022 0.617677 0.10483 50 50 51
0.223022 0.618705 0.105858 48 48 49
0.225077 0.606372 0.094553 73 66 63
0.226105 0.605344 0.098664 69 63 61
0.22816 0.605344 0.098664 79 74 72
0.231244 0.605344 0.101747 92 90 93
0.224049 0.620761 0.103803 59 55 54
0.226105 0.620761 0.103803 66 62 60
0.234327 0.591984 0.09147 99 88 80
0.233299 0.596095 0.09147 103 90 81
0.23741 0.589928 0.093525 141 136 136
0.238438 0.594039 0.094553 144 142 146
0.235355 0.601233 0.094553 96 87 82
0.23741 0.59815 0.096608 129 126 128
0.238438 0.602261 0.096608 150 144 143
0.232271 0.602261 0.108941 66 61 59
0.233299 0.603289 0.108941 64 58 54
0.234327 0.603289 0.107914 71 64 60
0.239466 0.604317 0.10483 99 93 92
0.238438 0.604317 0.105858 95 90 89
0.240493 0.5889 0.099692 104 97 94
0.241521 0.589928 0.101747 100 90 83
0.24666 0.591984 0.106886 93 83 75
0.244604 0.595067 0.105858 100 89 81
0.241521 0.599178 0.100719 81 73 67
0.240493 0.601233 0.098664 128 122 120
0.240493 0.603289 0.098664 158 149 145
0.243577 0.600206 0.103803 86 76 68
0.241521 0.602261 0.101747 122 112 107
0.241521 0.603289 0.10483 105 96 91
0.241521 0.603289 0.107914 97 88 84
0.242549 0.603289 0.105858 100 90 84
0.234327 0.605344 0.096608 123 116 114
0.233299 0.605344 0.097636 110 105 104
0.235355 0.605344 0.097636 148 143 143
0.235355 0.606372 0.098664 142 139 141
0.239466 0.605344 0.096608 166 156 152
0.23741 0.606372 0.098664 157 152 154
0.235355 0.606372 0.102775 82 77 77
0.236382 0.605344 0.10483 74 68 66
0.239466 0.606372 0.101747 157 152 154
0.23741 0.605344 0.105858 86 80 79
0.240493 0.605344 0.099692 163 155 153
0.215827 0.642343 0.075026 99 92 89
0.215827 0.645427 0.07297 126 120 118
0.217883 0.642343 0.075026 119 113 111
0.218911 0.642343 0.076053 107 101 99
0.217883 0.651593 0.076053 100 91 86
0.220966 0.628983 0.092497 74 69 67
0.221994 0.628983 0.090442 76 71 69
0.216855 0.637205 0.079137 99 94 93
0.215827 0.634121 0.084275 76 72 70
0.218911 0.635149 0.08222 85 80 78
0.219938 0.633094 0.084275 80 75 72
0.220966 0.635149 0.08222 89 84 83
0.220966 0.634121 0.084275 88 84 83
0.221994 0.636177 0.08222 95 91 90
0.218911 0.632066 0.086331 79 74 72
0.215827 0.634121 0.087359 73 69 67
0.220966 0.63001 0.088386 76 72 71
0.221994 0.632066 0.085303 82 79 79
0.221994 0.63001 0.089414 74 70 68
0.224049 0.627955 0.092497 71 68 69
0.224049 0.635149 0.084275 87 84 83
0.226105 0.633094 0.088386 75 73 73
0.22816 0.631038 0.092497 64 63 64
0.215827 0.625899 0.099692 66 62 61
0.220966 0.626927 0.095581 75 69 67
0.220966 0.627955 0.094553 74 68 65
0.216855 0.63001 0.093525 70 66 65
0.218911 0.63001 0.093525 72 67 65
0.226105 0.623844 0.099692 73 68 66
0.224049 0.626927 0.094553 75 71 70
0.225077 0.627955 0.093525 69 66 66
0.226105 0.625899 0.096608 71 67 66
0.227133 0.626927 0.095581 61 59 59
0.230216 0.63001 0.095581 56 56 59
0.215827 0.63926 0.077081 102 96 94
0.218911 0.63926 0.078109 107 101 99
0.218911 0.640288 0.077081 109 103 100
0.220966 0.63926 0.079137 113 107 106
0.219938 0.642343 0.077081 106 100 99
0.221994 0.643371 0.079137 127 121 121
0.224049 0.642343 0.083248 107 101 100
0.226105 0.638232 0.085303 97 93 93
0.227133 0.63926 0.085303 98 95 96
0.231244 0.63926 0.09147 85 80 78
0.226105 0.650565 0.085303 94 85 80
0.231244 0.651593 0.09147 112 107 106
0.232271 0.625899 0.100719 53 53 55
0.232271 0.626927 0.099692 53 53 55
0.233299 0.628983 0.097636 59 59 61
0.232271 0.623844 0.10483 61 59 59
0.234327 0.622816 0.107914 63 62 62
0.236382 0.624872 0.107914 56 55 56
0.23741 0.628983 0.102775 87 85 87
0.233299 0.63001 0.096608 64 63 65
0.234327 0.634121 0.095581 78 75 76
0.234327 0.636177 0.095581 79 76 75
0.234327 0.634121 0.097636 77 74 75
0.236382 0.63001 0.100719 85 83 85
0.239466 0.631038 0.10483 76 73 73
0.239466 0.632066 0.103803 73 70 70
0.239466 0.63001 0.107914 77 73 73
0.239466 0.637205 0.101747 72 67 64
0.240493 0.63001 0.108941 74 70 69
0.232271 0.642343 0.09147 84 77 72
0.232271 0.645427 0.092497 90 83 78
0.233299 0.650565 0.092497 111 106 105
0.233299 0.640288 0.094553 83 76 72
0.234327 0.638232 0.095581 80 75 72
0.233299 0.642343 0.094553 82 74 69
0.235355 0.643371 0.095581 93 87 85
0.236382 0.642343 0.097636 101 96 95
0.235355 0.651593 0.095581 114 109 108
0.238438 0.64851 0.099692 105 100 99
0.242549 0.647482 0.106886 93 88 88
0.251799 0.541624 0.108941 86 79 75
0.264132 0.577595 0.046249 92 84 79
0.264132 0.576567 0.05036 91 83 77
0.264132 0.578623 0.052415 91 83 78
0.262076 0.586845 0.049332 74 67 63
0.262076 0.587873 0.048304 73 67 63
0.263104 0.584789 0.049332 80 73 69
0.264132 0.581706 0.053443 85 78 73
0.265159 0.578623 0.046249 92 84 79
0.266187 0.579651 0.046249 94 86 82
0.266187 0.576567 0.048304 92 84 78
0.265159 0.576567 0.051387 93 85 79
0.26927 0.579651 0.049332 98 89 82
0.265159 0.579651 0.052415 92 83 78
0.267215 0.577595 0.052415 96 87 81
0.266187 0.582734 0.045221 101 94 91
0.268243 0.580678 0.047276 99 90 85
0.268243 0.580678 0.049332 97 88 82
0.268243 0.581706 0.048304 99 90 84
0.268243 0.582734 0.049332 99 89 83
0.268243 0.583762 0.048304 100 91 84
0.268243 0.585817 0.046249 111 103 100
0.26927 0.581706 0.051387 101 90 82
0.26927 0.583762 0.049332 99 89 82
0.26927 0.582734 0.05036 103 93 86
0.26927 0.587873 0.051387 103 91 82
0.265159 0.581706 0.054471 89 81 76
0.267215 0.582734 0.057554 101 93 89
0.268243 0.582734 0.058582 108 100 96
0.265159 0.584789 0.057554 75 69 65
0.265159 0.585817 0.056526 73 66 62
0.270298 0.582734 0.053443 109 98 91
0.26927 0.581706 0.056526 121 111 106
0.272354 0.583762 0.059609 141 131 127
0.270298 0.586845 0.053443 101 89 81
0.271326 0.584789 0.056526 119 109 102
0.271326 0.587873 0.057554 96 84 73
0.271326 0.586845 0.058582 100 88 79
0.271326 0.587873 0.059609 100 88 78
0.272354 0.577595 0.064748 109 101 97
0.272354 0.578623 0.071942 80 74 71
0.265159 0.587873 0.060637 67 61 57
0.272354 0.582734 0.060637 156 146 142
0.272354 0.583762 0.061665 126 115 110
0.26927 0.581706 0.067831 70 64 61
0.26927 0.582734 0.064748 70 65 61
0.26927 0.584789 0.070915 62 57 54
0.26927 0.587873 0.071942 63 59 56
0.26927 0.584789 0.07297 60 55 52
0.270298 0.585817 0.076053 63 58 54
0.26927 0.587873 0.076053 60 55 52
0.273381 0.576567 0.069887 98 90 87
0.273381 0.576567 0.071942 96 90 87
0.275437 0.576567 0.071942 103 96 92
0.276465 0.577595 0.071942 109 99 93
0.276465 0.579651 0.071942 100 89 80
0.273381 0.577595 0.07297 92 86 83
0.273381 0.579651 0.076053 72 67 64
0.275437 0.576567 0.076053 103 96 93
0.277492 0.57554 0.076053 105 98 94
0.277492 0.576567 0.073998 108 99 95
0.27852 0.577595 0.073998 105 95 88
