ply
format ascii 1.0
comment PCL generated
element vertex 1238
property float x
property float y
property float z
property uchar red
property uchar green
property uchar blue
element camera 0
property float view_px
property float view_py
property float view_pz
property float x_axisx
property float x_axisy
property float x_axisz
property float y_axisx
property float y_axisy
property float y_axisz
property float z_axisx
property float z_axisy
property float z_axisz
property float focal
property float scalex
property float scaley
property float centerx
property float centery
property int viewportx
property int viewporty
property float k1
property float k2
end_header
0.153677 0.716319 0.068812 106 100 99
0.153677 0.721409 0.068812 91 82 76
0.158767 0.685779 0.058632 110 105 105
0.158767 0.690869 0.058632 104 98 97
0.163857 0.685779 0.058632 110 106 106
0.163857 0.690869 0.058632 110 105 105
0.158767 0.695959 0.058632 115 110 109
0.158767 0.701049 0.058632 110 104 102
0.158767 0.701049 0.063722 107 100 98
0.163857 0.695959 0.058632 121 116 116
0.163857 0.701049 0.058632 110 104 102
0.163857 0.701049 0.063722 99 92 89
0.168947 0.685779 0.058632 102 97 96
0.168947 0.690869 0.058632 105 100 100
0.174037 0.685779 0.058632 107 102 102
0.174037 0.690869 0.058632 108 102 102
0.168947 0.695959 0.058632 110 103 101
0.168947 0.701049 0.058632 105 97 94
0.168947 0.701049 0.063722 102 95 92
0.174037 0.695959 0.058632 108 101 97
0.174037 0.701049 0.058632 99 91 85
0.158767 0.706139 0.063722 106 100 99
0.158767 0.711229 0.063722 101 95 94
0.163857 0.706139 0.063722 104 98 97
0.163857 0.711229 0.063722 108 102 102
0.158767 0.716319 0.063722 105 99 98
0.163857 0.716319 0.063722 104 98 97
0.163857 0.721409 0.063722 104 96 93
0.158767 0.716319 0.068812 102 97 96
0.158767 0.721409 0.068812 95 86 81
0.163857 0.716319 0.068812 91 86 85
0.163857 0.721409 0.068812 93 85 80
0.168947 0.706139 0.058632 110 103 101
0.168947 0.706139 0.063722 106 100 100
0.168947 0.711229 0.063722 108 102 102
0.174037 0.706139 0.058632 110 104 101
0.174037 0.706139 0.063722 101 96 95
0.174037 0.711229 0.063722 106 101 100
0.168947 0.716319 0.063722 103 97 96
0.168947 0.721409 0.063722 103 94 88
0.174037 0.716319 0.063722 103 97 95
0.174037 0.721409 0.063722 108 99 93
0.168947 0.721409 0.068812 102 92 86
0.138407 0.726499 0.068812 104 94 88
0.138407 0.726499 0.073902 125 117 115
0.138407 0.731589 0.073902 124 117 116
0.143497 0.726499 0.068812 116 108 105
0.143497 0.726499 0.073902 122 114 111
0.143497 0.731589 0.073902 106 98 94
0.138407 0.736679 0.073902 103 99 98
0.143497 0.736679 0.073902 114 109 109
0.148587 0.726499 0.068812 107 99 96
0.148587 0.731589 0.068812 101 93 88
0.148587 0.731589 0.073902 102 94 90
0.153677 0.726499 0.068812 98 89 84
0.153677 0.731589 0.068812 94 85 81
0.153677 0.731589 0.073902 106 99 96
0.148587 0.736679 0.073902 114 108 108
0.148587 0.741769 0.073902 116 111 111
0.153677 0.736679 0.073902 113 108 109
0.153677 0.741769 0.073902 113 108 108
0.138407 0.736679 0.078992 109 104 103
0.138407 0.741769 0.078992 123 118 119
0.143497 0.736679 0.078992 116 111 111
0.143497 0.741769 0.078992 112 107 108
0.148587 0.741769 0.078992 112 107 107
0.153677 0.741769 0.078992 114 108 108
0.153677 0.746859 0.073902 114 107 106
0.138407 0.746859 0.078992 109 104 103
0.138407 0.746859 0.084082 142 135 133
0.138407 0.751949 0.078992 130 120 116
0.138407 0.751949 0.084082 124 114 109
0.143497 0.746859 0.078992 101 93 90
0.143497 0.751949 0.078992 111 99 90
0.143497 0.751949 0.084082 111 99 90
0.138407 0.757039 0.084082 137 128 126
0.143497 0.757039 0.084082 123 114 110
0.143497 0.762129 0.084082 109 103 101
0.138407 0.757039 0.089172 134 126 123
0.138407 0.762129 0.089172 110 103 102
0.143497 0.757039 0.089172 130 121 120
0.143497 0.762129 0.089172 111 106 106
0.148587 0.746859 0.078992 110 103 99
0.148587 0.751949 0.078992 114 103 96
0.148587 0.751949 0.084082 108 97 89
0.153677 0.746859 0.078992 112 105 102
0.153677 0.751949 0.078992 109 99 93
0.148587 0.757039 0.078992 118 109 105
0.148587 0.757039 0.084082 113 104 99
0.148587 0.762129 0.084082 112 106 106
0.153677 0.757039 0.078992 119 111 107
0.153677 0.757039 0.084082 121 113 110
0.153677 0.762129 0.084082 124 118 117
0.148587 0.762129 0.089172 121 115 115
0.158767 0.726499 0.068812 116 109 106
0.158767 0.731589 0.068812 102 95 92
0.158767 0.731589 0.073902 100 94 93
0.163857 0.726499 0.068812 117 111 110
0.163857 0.731589 0.068812 119 113 112
0.158767 0.736679 0.068812 107 102 103
0.158767 0.736679 0.073902 119 115 116
0.158767 0.741769 0.073902 114 110 110
0.163857 0.736679 0.068812 114 110 111
0.163857 0.736679 0.073902 123 119 121
0.163857 0.741769 0.073902 120 115 116
0.174037 0.726499 0.063722 119 112 110
0.168947 0.726499 0.068812 124 118 117
0.168947 0.731589 0.068812 122 115 115
0.174037 0.726499 0.068812 125 118 116
0.174037 0.731589 0.068812 118 111 111
0.168947 0.736679 0.068812 114 110 111
0.168947 0.736679 0.073902 125 121 123
0.168947 0.741769 0.068812 124 120 122
0.168947 0.741769 0.073902 124 119 121
0.174037 0.736679 0.068812 108 102 102
0.174037 0.741769 0.068812 99 93 91
0.174037 0.741769 0.073902 120 115 116
0.158767 0.746859 0.073902 114 107 106
0.163857 0.746859 0.073902 114 108 106
0.163857 0.751949 0.073902 117 109 106
0.168947 0.746859 0.073902 115 109 108
0.168947 0.751949 0.073902 120 114 112
0.174037 0.746859 0.073902 118 112 111
0.174037 0.751949 0.073902 123 115 113
0.174037 0.757039 0.073902 129 121 119
0.158767 0.746859 0.078992 123 116 113
0.158767 0.751949 0.078992 117 107 103
0.163857 0.746859 0.078992 123 115 113
0.163857 0.751949 0.078992 126 118 116
0.158767 0.757039 0.078992 122 113 109
0.158767 0.757039 0.084082 120 112 109
0.158767 0.762129 0.084082 121 115 114
0.163857 0.757039 0.078992 139 131 130
0.163857 0.762129 0.078992 116 109 107
0.163857 0.762129 0.084082 112 106 106
0.168947 0.751949 0.078992 133 126 125
0.168947 0.757039 0.078992 139 132 131
0.168947 0.762129 0.078992 136 129 129
0.168947 0.762129 0.084082 115 110 110
0.174037 0.757039 0.078992 134 126 125
0.174037 0.762129 0.078992 122 114 112
0.174037 0.762129 0.084082 111 106 106
0.179127 0.685779 0.058632 107 102 101
0.179127 0.690869 0.058632 108 102 101
0.184217 0.685779 0.058632 113 108 108
0.184217 0.690869 0.058632 109 103 102
0.179127 0.695959 0.058632 98 90 86
0.179127 0.701049 0.058632 103 95 90
0.184217 0.695959 0.058632 95 86 80
0.184217 0.701049 0.058632 99 90 85
0.189307 0.685779 0.058632 120 115 115
0.189307 0.690869 0.058632 109 103 102
0.194397 0.685779 0.058632 111 106 105
0.194397 0.690869 0.058632 92 86 83
0.189307 0.695959 0.058632 114 107 103
0.189307 0.701049 0.058632 103 94 89
0.194397 0.695959 0.058632 119 112 109
0.194397 0.701049 0.058632 126 120 119
0.179127 0.706139 0.058632 106 100 99
0.179127 0.706139 0.063722 103 98 97
0.179127 0.711229 0.063722 108 103 102
0.184217 0.706139 0.058632 113 107 107
0.184217 0.711229 0.058632 114 109 108
0.184217 0.711229 0.063722 115 110 110
0.179127 0.716319 0.063722 109 103 102
0.179127 0.721409 0.063722 111 102 97
0.184217 0.716319 0.063722 110 103 101
0.184217 0.721409 0.063722 110 101 96
0.189307 0.706139 0.058632 109 103 102
0.189307 0.711229 0.058632 91 85 83
0.189307 0.711229 0.063722 91 85 84
0.194397 0.706139 0.058632 113 108 108
0.194397 0.711229 0.058632 118 114 115
0.194397 0.711229 0.063722 123 118 119
0.189307 0.716319 0.063722 111 104 102
0.189307 0.721409 0.063722 111 102 97
0.194397 0.716319 0.063722 94 86 82
0.194397 0.721409 0.063722 112 104 100
0.199487 0.685779 0.058632 109 103 102
0.199487 0.690869 0.058632 93 86 82
0.204577 0.685779 0.058632 92 87 86
0.204577 0.685779 0.063722 55 52 52
0.204577 0.690869 0.058632 92 85 81
0.204577 0.690869 0.063722 68 64 62
0.204577 0.685779 0.068812 69 63 59
0.204577 0.685779 0.073902 90 82 78
0.204577 0.690869 0.068812 70 63 59
0.204577 0.690869 0.073902 101 91 85
0.199487 0.695959 0.058632 113 105 102
0.199487 0.701049 0.058632 106 98 95
0.204577 0.695959 0.058632 105 98 95
0.204577 0.695959 0.063722 77 72 69
0.204577 0.701049 0.058632 100 92 88
0.204577 0.701049 0.063722 84 79 76
0.204577 0.695959 0.068812 61 56 53
0.204577 0.695959 0.073902 92 83 77
0.204577 0.701049 0.068812 47 44 43
0.204577 0.701049 0.073902 80 72 66
0.209667 0.685779 0.073902 121 113 109
0.209667 0.690869 0.073902 121 113 108
0.209667 0.695959 0.073902 103 94 88
0.209667 0.701049 0.073902 94 87 83
0.209667 0.685779 0.078992 133 125 122
0.209667 0.690869 0.078992 109 99 93
0.214757 0.685779 0.078992 124 115 112
0.214757 0.690869 0.078992 107 98 92
0.214757 0.690869 0.084082 103 93 87
0.209667 0.695959 0.078992 116 107 102
0.209667 0.701049 0.078992 120 113 111
0.214757 0.695959 0.078992 122 113 110
0.214757 0.695959 0.084082 124 117 115
0.214757 0.701049 0.078992 118 112 111
0.214757 0.701049 0.084082 109 102 100
0.199487 0.706139 0.058632 113 108 108
0.199487 0.706139 0.063722 126 121 122
0.199487 0.711229 0.058632 123 119 120
0.199487 0.711229 0.063722 126 122 123
0.204577 0.706139 0.058632 96 90 87
0.204577 0.706139 0.063722 104 99 99
0.204577 0.711229 0.063722 114 110 110
0.204577 0.706139 0.068812 42 41 41
0.204577 0.706139 0.073902 53 48 44
0.204577 0.711229 0.068812 61 58 58
0.199487 0.716319 0.063722 102 95 93
0.199487 0.721409 0.063722 105 96 91
0.204577 0.716319 0.063722 104 98 96
0.204577 0.721409 0.063722 97 87 82
0.204577 0.716319 0.068812 90 84 82
0.204577 0.721409 0.068812 95 87 83
0.209667 0.706139 0.073902 85 79 75
0.209667 0.711229 0.068812 37 36 37
0.209667 0.711229 0.073902 68 61 57
0.209667 0.716319 0.068812 63 60 59
0.209667 0.716319 0.073902 67 60 56
0.209667 0.721409 0.068812 83 77 74
0.209667 0.721409 0.073902 72 66 63
0.209667 0.706139 0.078992 108 102 100
0.209667 0.711229 0.078992 104 97 93
0.214757 0.706139 0.078992 104 99 97
0.214757 0.706139 0.084082 94 88 85
0.214757 0.711229 0.078992 95 87 84
0.214757 0.711229 0.084082 85 76 71
0.209667 0.716319 0.078992 106 98 94
0.209667 0.721409 0.078992 102 95 91
0.214757 0.716319 0.078992 93 85 80
0.214757 0.716319 0.084082 92 85 80
0.214757 0.721409 0.078992 107 100 98
0.214757 0.721409 0.084082 106 100 99
0.179127 0.726499 0.063722 117 110 108
0.184217 0.726499 0.063722 114 106 103
0.179127 0.726499 0.068812 111 103 99
0.179127 0.731589 0.068812 116 109 108
0.184217 0.726499 0.068812 114 106 103
0.184217 0.731589 0.068812 111 105 104
0.179127 0.736679 0.068812 108 103 103
0.179127 0.741769 0.068812 117 111 112
0.179127 0.741769 0.073902 119 114 115
0.184217 0.736679 0.068812 113 107 107
0.184217 0.741769 0.068812 119 115 116
0.184217 0.741769 0.073902 128 124 126
0.189307 0.726499 0.063722 117 109 106
0.194397 0.726499 0.063722 114 106 103
0.189307 0.726499 0.068812 118 111 108
0.189307 0.731589 0.068812 111 105 104
0.194397 0.726499 0.068812 112 105 102
0.194397 0.731589 0.068812 118 111 111
0.189307 0.736679 0.068812 123 118 119
0.189307 0.741769 0.068812 129 125 126
0.189307 0.741769 0.073902 129 124 126
0.194397 0.736679 0.068812 124 119 120
0.194397 0.741769 0.068812 112 105 104
0.194397 0.741769 0.073902 115 109 108
0.179127 0.746859 0.073902 116 109 107
0.179127 0.751949 0.073902 125 117 114
0.184217 0.746859 0.073902 121 114 112
0.184217 0.751949 0.073902 123 114 110
0.179127 0.757039 0.073902 132 124 122
0.184217 0.757039 0.073902 128 119 115
0.189307 0.746859 0.073902 121 114 111
0.189307 0.751949 0.073902 112 103 99
0.194397 0.746859 0.073902 109 100 96
0.194397 0.751949 0.073902 102 92 86
0.179127 0.757039 0.078992 131 122 120
0.179127 0.762129 0.078992 109 103 102
0.179127 0.762129 0.084082 104 99 99
0.184217 0.757039 0.078992 121 111 106
0.184217 0.762129 0.078992 92 85 82
0.184217 0.762129 0.084082 108 103 103
0.189307 0.751949 0.078992 113 103 98
0.194397 0.751949 0.078992 125 115 110
0.189307 0.757039 0.078992 118 107 101
0.189307 0.762129 0.078992 79 72 68
0.189307 0.762129 0.084082 102 95 92
0.194397 0.757039 0.078992 117 108 103
0.194397 0.762129 0.078992 85 79 77
0.194397 0.762129 0.084082 113 105 102
0.199487 0.726499 0.063722 115 107 103
0.204577 0.726499 0.063722 109 101 96
0.199487 0.726499 0.068812 122 114 110
0.199487 0.731589 0.068812 117 112 111
0.204577 0.726499 0.068812 112 104 101
0.204577 0.731589 0.068812 116 110 109
0.199487 0.736679 0.068812 127 121 122
0.199487 0.741769 0.068812 104 96 92
0.199487 0.741769 0.073902 107 99 95
0.204577 0.736679 0.068812 120 113 113
0.204577 0.736679 0.073902 111 104 102
0.204577 0.741769 0.068812 121 114 113
0.204577 0.741769 0.073902 111 104 102
0.209667 0.726499 0.068812 93 87 85
0.209667 0.726499 0.073902 79 74 71
0.209667 0.731589 0.068812 108 102 101
0.209667 0.731589 0.073902 76 70 69
0.209667 0.736679 0.073902 91 85 83
0.209667 0.741769 0.073902 104 98 96
0.209667 0.726499 0.078992 105 98 95
0.209667 0.731589 0.078992 96 89 85
0.214757 0.726499 0.078992 100 94 92
0.214757 0.726499 0.084082 115 110 109
0.214757 0.731589 0.078992 117 109 105
0.214757 0.731589 0.084082 128 119 117
0.209667 0.736679 0.078992 90 82 78
0.209667 0.736679 0.084082 55 50 49
0.209667 0.741769 0.078992 58 53 52
0.209667 0.741769 0.084082 52 47 45
0.214757 0.736679 0.078992 117 106 100
0.214757 0.736679 0.084082 94 86 84
0.214757 0.741769 0.084082 89 82 78
0.214757 0.736679 0.089172 69 63 60
0.214757 0.741769 0.089172 77 71 68
0.214757 0.741769 0.094262 74 69 66
0.199487 0.746859 0.073902 121 112 108
0.199487 0.751949 0.073902 118 108 103
0.204577 0.746859 0.073902 113 102 96
0.204577 0.751949 0.073902 110 99 92
0.209667 0.746859 0.073902 121 112 107
0.199487 0.751949 0.078992 120 109 104
0.204577 0.751949 0.078992 113 101 94
0.199487 0.757039 0.078992 108 99 95
0.199487 0.757039 0.084082 75 70 67
0.199487 0.762129 0.078992 91 86 85
0.199487 0.762129 0.084082 93 85 82
0.204577 0.757039 0.078992 128 118 115
0.204577 0.757039 0.084082 98 90 87
0.204577 0.762129 0.084082 82 74 69
0.209667 0.746859 0.078992 84 78 75
0.209667 0.746859 0.084082 75 68 63
0.209667 0.751949 0.078992 106 97 93
0.209667 0.751949 0.084082 89 82 78
0.214757 0.746859 0.084082 102 93 88
0.214757 0.751949 0.084082 97 90 86
0.214757 0.746859 0.089172 94 86 81
0.214757 0.746859 0.094262 90 82 78
0.214757 0.751949 0.089172 92 85 81
0.214757 0.751949 0.094262 95 87 81
0.209667 0.757039 0.084082 103 95 91
0.209667 0.762129 0.084082 89 81 76
0.214757 0.757039 0.084082 84 76 72
0.209667 0.757039 0.089172 88 81 78
0.209667 0.762129 0.089172 89 80 75
0.214757 0.757039 0.089172 91 84 80
0.214757 0.757039 0.094262 88 80 75
0.214757 0.762129 0.089172 95 87 82
0.214757 0.762129 0.094262 90 82 78
0.214757 0.746859 0.099352 81 73 69
0.214757 0.751949 0.099352 88 79 74
0.214757 0.757039 0.099352 91 82 75
0.260567 0.578889 0.048452 88 81 76
0.260567 0.578889 0.053542 87 80 75
0.265657 0.573799 0.048452 91 83 77
0.265657 0.578889 0.048452 93 85 79
0.265657 0.578889 0.053542 93 84 79
0.270747 0.578889 0.048452 97 88 82
0.270747 0.578889 0.053542 102 92 85
0.265657 0.583979 0.043362 99 92 88
0.265657 0.589069 0.043362 101 93 88
0.260567 0.583979 0.048452 82 75 71
0.260567 0.583979 0.053542 75 69 65
0.260567 0.589069 0.048452 75 69 65
0.260567 0.589069 0.053542 71 66 63
0.265657 0.583979 0.048452 100 93 89
0.265657 0.583979 0.053542 84 77 72
0.265657 0.589069 0.048452 106 97 91
0.265657 0.589069 0.053542 72 66 62
0.260567 0.594159 0.048452 78 72 67
0.260567 0.594159 0.053542 71 65 61
0.260567 0.599249 0.048452 79 72 68
0.260567 0.599249 0.053542 71 65 61
0.265657 0.594159 0.048452 111 101 95
0.265657 0.599249 0.048452 115 105 99
0.265657 0.599249 0.053542 112 100 92
0.270747 0.583979 0.048452 103 93 88
0.270747 0.583979 0.053542 106 96 88
0.270747 0.589069 0.048452 103 93 85
0.270747 0.589069 0.053542 100 88 78
0.270747 0.594159 0.048452 108 97 90
0.270747 0.594159 0.053542 103 91 80
0.270747 0.599249 0.048452 106 95 87
0.270747 0.599249 0.053542 103 90 80
0.219847 0.466909 0.094262 134 130 131
0.219847 0.471999 0.094262 128 123 123
0.219847 0.477089 0.089172 139 135 137
0.219847 0.477089 0.094262 126 121 122
0.224937 0.471999 0.094262 141 137 139
0.224937 0.477089 0.094262 134 128 128
0.219847 0.441459 0.104442 130 127 129
0.219847 0.446549 0.104442 123 120 121
0.219847 0.441459 0.109532 120 116 116
0.219847 0.441459 0.114622 88 83 80
0.219847 0.446549 0.109532 129 125 127
0.224937 0.441459 0.109532 120 115 115
0.224937 0.441459 0.114622 108 103 102
0.224937 0.446549 0.109532 123 118 119
0.224937 0.446549 0.114622 130 126 127
0.219847 0.451639 0.099352 121 118 119
0.219847 0.451639 0.104442 123 120 120
0.219847 0.456729 0.099352 120 115 115
0.219847 0.456729 0.104442 124 120 121
0.224937 0.451639 0.104442 121 117 117
0.224937 0.456729 0.104442 121 117 117
0.219847 0.451639 0.109532 127 124 125
0.224937 0.451639 0.109532 121 116 117
0.224937 0.451639 0.114622 130 126 126
0.224937 0.456729 0.109532 120 116 116
0.230027 0.441459 0.114622 126 121 121
0.230027 0.446549 0.114622 121 116 116
0.235117 0.441459 0.114622 91 88 89
0.235117 0.446549 0.109532 93 90 92
0.235117 0.446549 0.114622 101 98 99
0.230027 0.451639 0.109532 121 116 116
0.230027 0.451639 0.114622 116 112 112
0.230027 0.456729 0.109532 104 101 101
0.235117 0.451639 0.109532 96 93 94
0.235117 0.451639 0.114622 75 74 76
0.235117 0.456729 0.109532 108 106 107
0.230027 0.441459 0.119712 131 126 126
0.235117 0.441459 0.119712 124 120 120
0.219847 0.461819 0.099352 130 125 126
0.219847 0.461819 0.104442 125 122 123
0.219847 0.466909 0.099352 140 136 139
0.224937 0.461819 0.099352 133 129 131
0.224937 0.461819 0.104442 121 117 117
0.224937 0.466909 0.099352 138 134 136
0.224937 0.466909 0.104442 127 123 123
0.224937 0.461819 0.109532 124 120 120
0.219847 0.471999 0.099352 141 138 140
0.224937 0.471999 0.099352 141 137 139
0.224937 0.471999 0.104442 139 136 138
0.224937 0.477089 0.099352 140 135 136
0.230027 0.461819 0.104442 113 109 110
0.230027 0.466909 0.104442 114 110 111
0.235117 0.466909 0.104442 137 132 134
0.230027 0.461819 0.109532 108 105 107
0.235117 0.461819 0.109532 127 124 125
0.235117 0.466909 0.109532 127 123 123
0.230027 0.471999 0.099352 134 130 131
0.230027 0.471999 0.104442 128 123 124
0.230027 0.477089 0.099352 141 136 137
0.230027 0.477089 0.104442 134 129 129
0.235117 0.471999 0.104442 116 111 110
0.235117 0.477089 0.104442 119 113 111
0.235117 0.471999 0.109532 116 109 107
0.235117 0.477089 0.109532 113 107 105
0.240207 0.441459 0.109532 115 112 113
0.240207 0.441459 0.114622 102 100 102
0.240207 0.446549 0.109532 135 131 133
0.240207 0.446549 0.114622 138 134 137
0.245297 0.441459 0.114622 135 132 134
0.245297 0.446549 0.114622 149 145 147
0.240207 0.451639 0.109532 139 135 137
0.240207 0.451639 0.114622 134 129 130
0.240207 0.456729 0.109532 133 129 130
0.240207 0.456729 0.114622 124 119 118
0.245297 0.451639 0.114622 136 132 132
0.245297 0.456729 0.114622 109 102 100
0.240207 0.441459 0.119712 65 63 64
0.245297 0.441459 0.119712 125 122 124
0.245297 0.441459 0.124802 114 108 107
0.245297 0.446549 0.119712 138 133 134
0.245297 0.446549 0.124802 129 122 122
0.245297 0.451639 0.119712 131 126 126
0.245297 0.451639 0.124802 131 125 125
0.245297 0.456729 0.119712 109 101 98
0.245297 0.456729 0.124802 130 124 123
0.250387 0.441459 0.124802 115 108 105
0.250387 0.446549 0.124802 133 126 125
0.250387 0.441459 0.129892 123 116 114
0.250387 0.441459 0.134982 116 109 107
0.250387 0.446549 0.129892 134 127 126
0.250387 0.446549 0.134982 129 122 121
0.255477 0.441459 0.134982 108 101 98
0.255477 0.446549 0.134982 104 96 92
0.250387 0.451639 0.124802 137 131 131
0.250387 0.456729 0.124802 127 120 119
0.250387 0.451639 0.129892 137 131 131
0.250387 0.451639 0.134982 135 129 128
0.250387 0.456729 0.129892 121 113 109
0.255477 0.451639 0.129892 128 122 121
0.255477 0.451639 0.134982 106 99 95
0.255477 0.456729 0.129892 132 125 124
0.255477 0.456729 0.134982 127 120 118
0.240207 0.461819 0.109532 132 128 129
0.240207 0.461819 0.114622 120 115 115
0.240207 0.466909 0.109532 126 120 121
0.240207 0.466909 0.114622 124 118 116
0.245297 0.461819 0.114622 119 113 113
0.245297 0.466909 0.114622 127 120 118
0.240207 0.471999 0.109532 112 106 104
0.240207 0.471999 0.114622 111 105 103
0.240207 0.477089 0.109532 114 108 106
0.240207 0.477089 0.114622 122 117 116
0.240207 0.466909 0.119712 93 84 80
0.245297 0.461819 0.119712 127 119 118
0.245297 0.461819 0.124802 124 117 115
0.245297 0.466909 0.119712 125 117 115
0.245297 0.466909 0.124802 125 118 116
0.240207 0.471999 0.119712 115 108 107
0.240207 0.477089 0.119712 126 120 119
0.245297 0.471999 0.119712 121 114 112
0.245297 0.471999 0.124802 127 120 119
0.245297 0.477089 0.119712 129 123 122
0.245297 0.477089 0.124802 134 127 126
0.250387 0.461819 0.124802 128 121 120
0.250387 0.466909 0.124802 123 117 115
0.250387 0.461819 0.129892 127 120 118
0.250387 0.466909 0.129892 119 112 110
0.250387 0.466909 0.134982 126 118 116
0.255477 0.461819 0.129892 128 121 120
0.255477 0.461819 0.134982 128 120 119
0.255477 0.466909 0.134982 123 116 115
0.250387 0.471999 0.124802 132 125 124
0.250387 0.477089 0.124802 137 131 131
0.250387 0.471999 0.129892 134 127 127
0.250387 0.471999 0.134982 143 137 137
0.250387 0.477089 0.129892 137 130 130
0.250387 0.477089 0.134982 140 133 133
0.255477 0.471999 0.134982 136 130 130
0.255477 0.477089 0.134982 140 134 135
0.219847 0.487269 0.084082 120 116 117
0.219847 0.482179 0.089172 135 132 133
0.219847 0.482179 0.094262 137 133 134
0.219847 0.487269 0.089172 122 118 119
0.224937 0.482179 0.094262 112 107 106
0.224937 0.487269 0.089172 131 127 128
0.224937 0.487269 0.094262 125 120 121
0.219847 0.492359 0.078992 127 123 125
0.219847 0.492359 0.084082 127 124 125
0.219847 0.497449 0.078992 114 111 111
0.219847 0.497449 0.084082 117 113 114
0.224937 0.492359 0.084082 127 123 124
0.224937 0.497449 0.084082 118 114 114
0.219847 0.492359 0.089172 124 120 121
0.224937 0.492359 0.089172 126 122 123
0.224937 0.492359 0.094262 130 127 129
0.224937 0.497449 0.089172 118 114 114
0.230027 0.487269 0.094262 126 122 122
0.230027 0.492359 0.089172 128 123 124
0.230027 0.492359 0.094262 122 118 118
0.230027 0.497449 0.089172 125 120 120
0.230027 0.497449 0.094262 126 121 121
0.235117 0.492359 0.094262 103 97 94
0.235117 0.497449 0.094262 121 115 114
0.219847 0.502539 0.078992 126 122 122
0.219847 0.502539 0.084082 123 118 118
0.219847 0.507629 0.078992 126 121 121
0.219847 0.507629 0.084082 132 127 127
0.224937 0.502539 0.084082 126 122 122
0.224937 0.507629 0.084082 129 124 124
0.224937 0.502539 0.089172 130 125 125
0.219847 0.512719 0.078992 113 107 106
0.219847 0.512719 0.084082 116 111 110
0.219847 0.517809 0.078992 118 112 111
0.219847 0.517809 0.084082 120 114 112
0.224937 0.512719 0.084082 113 108 106
0.224937 0.517809 0.084082 119 113 112
0.224937 0.512719 0.089172 117 111 109
0.224937 0.517809 0.089172 118 112 110
0.230027 0.502539 0.089172 131 125 125
0.230027 0.502539 0.094262 132 127 126
0.230027 0.507629 0.089172 126 121 121
0.230027 0.507629 0.094262 123 118 118
0.235117 0.502539 0.094262 124 118 117
0.235117 0.507629 0.094262 119 113 112
0.230027 0.512719 0.089172 115 109 108
0.230027 0.512719 0.094262 124 119 119
0.230027 0.517809 0.089172 116 110 108
0.230027 0.517809 0.094262 107 102 100
0.235117 0.512719 0.094262 115 109 107
0.235117 0.517809 0.094262 111 105 103
0.224937 0.482179 0.099352 111 105 103
0.224937 0.487269 0.099352 102 96 94
0.230027 0.482179 0.099352 114 108 106
0.230027 0.482179 0.104442 116 111 110
0.230027 0.487269 0.099352 106 100 98
0.230027 0.487269 0.104442 134 127 125
0.235117 0.482179 0.104442 119 112 111
0.235117 0.487269 0.099352 102 96 94
0.235117 0.487269 0.104442 103 97 93
0.235117 0.482179 0.109532 117 111 109
0.235117 0.487269 0.109532 105 98 95
0.230027 0.492359 0.099352 98 93 91
0.235117 0.492359 0.099352 94 87 84
0.235117 0.492359 0.104442 88 81 77
0.235117 0.497449 0.099352 113 105 102
0.235117 0.497449 0.104442 110 102 98
0.235117 0.502539 0.099352 117 111 109
0.235117 0.502539 0.104442 123 117 116
0.235117 0.507629 0.099352 118 112 110
0.235117 0.507629 0.104442 118 112 110
0.235117 0.512719 0.099352 118 112 110
0.235117 0.517809 0.099352 113 107 105
0.240207 0.487269 0.104442 95 88 84
0.240207 0.482179 0.109532 126 120 119
0.240207 0.482179 0.114622 129 123 123
0.240207 0.487269 0.109532 105 98 95
0.240207 0.487269 0.114622 126 119 117
0.245297 0.482179 0.114622 133 128 129
0.245297 0.487269 0.114622 120 112 109
0.240207 0.492359 0.104442 101 93 89
0.240207 0.497449 0.104442 102 94 89
0.240207 0.492359 0.109532 105 97 93
0.240207 0.492359 0.114622 123 115 112
0.240207 0.497449 0.109532 106 99 95
0.245297 0.492359 0.109532 100 93 89
0.245297 0.492359 0.114622 112 105 102
0.245297 0.497449 0.109532 89 80 74
0.245297 0.497449 0.114622 106 99 96
0.245297 0.482179 0.119712 118 112 110
0.245297 0.482179 0.124802 121 115 113
0.245297 0.487269 0.119712 122 115 112
0.245297 0.487269 0.124802 133 126 124
0.245297 0.492359 0.119712 121 115 115
0.245297 0.492359 0.124802 119 113 112
0.245297 0.497449 0.119712 103 95 91
0.250387 0.482179 0.124802 129 123 123
0.250387 0.487269 0.124802 132 127 126
0.250387 0.482179 0.129892 131 125 124
0.250387 0.482179 0.134982 131 125 124
0.250387 0.487269 0.129892 121 115 115
0.250387 0.487269 0.134982 118 112 111
0.255477 0.482179 0.134982 126 120 120
0.250387 0.492359 0.119712 121 115 115
0.250387 0.492359 0.124802 114 109 109
0.250387 0.497449 0.119712 119 113 111
0.250387 0.497449 0.124802 125 118 117
0.255477 0.497449 0.124802 118 111 110
0.250387 0.492359 0.129892 101 94 92
0.250387 0.492359 0.134982 121 114 112
0.250387 0.497449 0.129892 123 117 116
0.250387 0.497449 0.134982 107 97 92
0.255477 0.492359 0.134982 129 122 120
0.255477 0.497449 0.129892 96 91 90
0.255477 0.497449 0.134982 107 97 92
0.240207 0.502539 0.104442 121 115 114
0.240207 0.507629 0.099352 119 113 112
0.240207 0.507629 0.104442 119 113 111
0.245297 0.507629 0.104442 118 113 112
0.240207 0.502539 0.109532 118 111 110
0.240207 0.507629 0.109532 122 116 115
0.245297 0.502539 0.109532 119 113 110
0.245297 0.502539 0.114622 122 116 114
0.245297 0.507629 0.109532 121 116 114
0.245297 0.507629 0.114622 122 116 115
0.240207 0.512719 0.099352 116 109 107
0.240207 0.512719 0.104442 110 103 100
0.240207 0.517809 0.099352 108 102 100
0.240207 0.517809 0.104442 95 89 87
0.245297 0.512719 0.104442 106 100 98
0.245297 0.517809 0.104442 94 87 85
0.245297 0.512719 0.109532 125 119 118
0.245297 0.512719 0.114622 125 118 117
0.245297 0.517809 0.109532 116 111 110
0.245297 0.517809 0.114622 114 110 111
0.250387 0.507629 0.114622 125 119 118
0.250387 0.512719 0.114622 121 115 114
0.250387 0.517809 0.114622 112 107 108
0.245297 0.502539 0.119712 107 99 95
0.250387 0.502539 0.119712 115 108 105
0.250387 0.502539 0.124802 118 112 109
0.250387 0.507629 0.119712 125 119 118
0.250387 0.507629 0.124802 124 118 116
0.255477 0.502539 0.124802 99 92 88
0.255477 0.507629 0.119712 124 118 116
0.255477 0.507629 0.124802 117 111 110
0.255477 0.502539 0.129892 92 85 82
0.255477 0.502539 0.134982 106 96 90
0.255477 0.507629 0.129892 114 108 106
0.255477 0.507629 0.134982 112 105 102
0.250387 0.512719 0.119712 121 115 113
0.250387 0.517809 0.119712 103 99 99
0.250387 0.517809 0.124802 86 83 83
0.255477 0.512719 0.119712 128 122 121
0.255477 0.512719 0.124802 125 119 118
0.255477 0.517809 0.119712 121 114 113
0.255477 0.517809 0.124802 114 109 108
0.255477 0.512719 0.129892 121 116 117
0.255477 0.512719 0.134982 116 110 107
0.255477 0.517809 0.129892 107 102 102
0.255477 0.517809 0.134982 110 104 102
0.255477 0.441459 0.140072 110 102 99
0.255477 0.441459 0.145162 117 111 109
0.255477 0.446549 0.140072 111 103 100
0.255477 0.451639 0.140072 91 83 76
0.255477 0.456729 0.140072 123 115 113
0.255477 0.461819 0.140072 127 119 117
0.255477 0.466909 0.140072 117 110 106
0.255477 0.471999 0.140072 135 129 128
0.255477 0.471999 0.145162 140 134 133
0.255477 0.477089 0.140072 130 124 124
0.255477 0.477089 0.145162 135 128 128
0.250387 0.487269 0.140072 111 106 105
0.255477 0.482179 0.140072 128 123 122
0.255477 0.482179 0.145162 132 126 126
0.255477 0.487269 0.140072 119 113 113
0.255477 0.487269 0.145162 127 122 122
0.255477 0.482179 0.150252 131 127 127
0.255477 0.487269 0.150252 129 124 125
0.255477 0.492359 0.140072 121 116 115
0.255477 0.492359 0.145162 123 117 117
0.255477 0.497449 0.140072 129 122 120
0.255477 0.497449 0.145162 132 126 126
0.255477 0.492359 0.150252 115 109 108
0.255477 0.502539 0.140072 124 116 112
0.255477 0.502539 0.145162 136 130 129
0.255477 0.507629 0.140072 113 103 98
0.255477 0.507629 0.145162 131 122 117
0.255477 0.512719 0.140072 110 102 98
0.255477 0.512719 0.145162 129 121 118
0.255477 0.517809 0.140072 115 108 106
0.255477 0.517809 0.145162 127 120 119
0.224937 0.507629 0.216422 162 156 157
0.219847 0.517809 0.216422 154 148 149
0.224937 0.512719 0.216422 151 145 146
0.224937 0.517809 0.216422 153 146 148
0.235117 0.502539 0.216422 165 159 160
0.235117 0.507629 0.216422 141 135 135
0.230027 0.512719 0.216422 161 155 157
0.230027 0.517809 0.216422 157 151 153
0.235117 0.512719 0.216422 158 153 154
0.235117 0.517809 0.216422 157 151 152
0.255477 0.492359 0.216422 179 170 169
0.255477 0.497449 0.216422 132 122 118
0.255477 0.517809 0.196062 147 141 141
0.240207 0.502539 0.216422 167 160 161
0.240207 0.507629 0.216422 152 146 147
0.245297 0.502539 0.216422 135 123 120
0.245297 0.507629 0.216422 148 141 141
0.240207 0.512719 0.216422 153 148 150
0.240207 0.517809 0.211332 130 119 116
0.240207 0.517809 0.216422 145 137 137
0.245297 0.512719 0.211332 160 153 154
0.245297 0.512719 0.216422 162 157 158
0.245297 0.517809 0.211332 159 151 150
0.245297 0.517809 0.216422 160 155 158
0.255477 0.507629 0.206242 135 127 125
0.250387 0.502539 0.216422 170 162 162
0.250387 0.507629 0.211332 175 168 169
0.250387 0.507629 0.216422 164 157 158
0.255477 0.502539 0.211332 139 131 131
0.255477 0.502539 0.216422 158 149 149
0.255477 0.507629 0.211332 146 138 138
0.255477 0.507629 0.216422 165 156 156
0.250387 0.517809 0.206242 160 152 153
0.255477 0.512719 0.206242 127 118 115
0.255477 0.517809 0.201152 151 144 145
0.255477 0.517809 0.206242 149 141 141
0.250387 0.512719 0.211332 157 148 146
0.250387 0.512719 0.216422 159 151 150
0.250387 0.517809 0.211332 161 154 155
0.255477 0.512719 0.211332 125 113 108
0.255477 0.517809 0.211332 156 148 147
0.260567 0.441459 0.145162 124 116 114
0.260567 0.446549 0.140072 132 125 123
0.260567 0.446549 0.145162 130 123 121
0.260567 0.441459 0.150252 117 110 108
0.260567 0.441459 0.155342 101 96 95
0.260567 0.446549 0.150252 111 103 99
0.265657 0.441459 0.155342 111 105 103
0.265657 0.446549 0.150252 103 95 90
0.265657 0.446549 0.155342 123 117 115
0.260567 0.451639 0.140072 93 85 80
0.260567 0.451639 0.145162 116 109 106
0.260567 0.456729 0.140072 127 120 118
0.260567 0.456729 0.145162 133 127 125
0.260567 0.451639 0.150252 124 117 115
0.260567 0.456729 0.150252 133 126 125
0.265657 0.451639 0.150252 128 121 120
0.265657 0.451639 0.155342 137 131 131
0.265657 0.456729 0.150252 140 134 134
0.265657 0.456729 0.155342 141 134 134
0.270747 0.451639 0.155342 138 132 132
0.270747 0.456729 0.155342 140 134 134
0.260567 0.441459 0.160432 83 79 78
0.265657 0.441459 0.160432 115 110 109
0.265657 0.441459 0.165522 117 112 112
0.265657 0.446549 0.160432 125 119 117
0.265657 0.441459 0.170612 96 91 91
0.270747 0.441459 0.160432 121 115 114
0.270747 0.441459 0.165522 108 103 103
0.270747 0.446549 0.160432 123 117 116
0.270747 0.446549 0.165522 122 115 114
0.270747 0.441459 0.170612 93 89 90
0.270747 0.441459 0.175702 112 106 104
0.270747 0.446549 0.170612 128 123 123
0.275837 0.441459 0.170612 103 98 98
0.275837 0.441459 0.175702 107 101 98
0.275837 0.446549 0.170612 133 128 128
0.275837 0.446549 0.175702 121 115 114
0.270747 0.451639 0.160432 135 130 130
0.270747 0.451639 0.165522 130 124 124
0.270747 0.456729 0.160432 139 133 133
0.270747 0.456729 0.165522 135 129 129
0.270747 0.451639 0.170612 132 125 124
0.275837 0.451639 0.170612 129 123 123
0.275837 0.451639 0.175702 129 122 121
0.275837 0.456729 0.170612 133 127 126
0.275837 0.456729 0.175702 127 120 118
0.260567 0.461819 0.140072 125 117 115
0.260567 0.461819 0.145162 128 121 119
0.260567 0.466909 0.140072 115 106 101
0.260567 0.466909 0.145162 118 110 107
0.260567 0.461819 0.150252 124 117 116
0.260567 0.466909 0.150252 112 105 101
0.265657 0.461819 0.150252 138 132 131
0.265657 0.461819 0.155342 135 128 127
0.265657 0.466909 0.150252 113 104 100
0.265657 0.466909 0.155342 112 103 99
0.260567 0.471999 0.140072 138 131 130
0.260567 0.471999 0.145162 127 120 118
0.260567 0.477089 0.145162 132 126 125
0.260567 0.471999 0.150252 121 114 112
0.260567 0.471999 0.155342 134 128 128
0.260567 0.477089 0.150252 131 125 125
0.260567 0.477089 0.155342 133 127 127
0.265657 0.471999 0.150252 127 120 119
0.265657 0.471999 0.155342 127 120 119
0.265657 0.477089 0.155342 133 127 127
0.270747 0.461819 0.155342 141 134 134
0.265657 0.461819 0.160432 137 130 129
0.265657 0.466909 0.160432 107 98 93
0.265657 0.471999 0.160432 136 130 129
0.265657 0.477089 0.160432 124 117 117
0.265657 0.477089 0.165522 119 114 113
0.270747 0.461819 0.160432 136 129 129
0.270747 0.461819 0.165522 137 131 131
0.270747 0.466909 0.160432 128 121 120
0.270747 0.466909 0.165522 124 117 116
0.270747 0.461819 0.170612 139 132 131
0.270747 0.466909 0.170612 106 98 94
0.275837 0.461819 0.170612 144 137 137
0.275837 0.461819 0.175702 134 127 127
0.275837 0.466909 0.170612 121 113 111
0.275837 0.466909 0.175702 126 117 114
0.270747 0.471999 0.160432 142 135 136
0.270747 0.471999 0.165522 139 133 133
0.270747 0.477089 0.165522 117 109 107
0.270747 0.471999 0.170612 128 120 117
0.270747 0.471999 0.175702 114 104 99
0.270747 0.477089 0.170612 115 105 100
0.270747 0.477089 0.175702 114 104 98
0.275837 0.471999 0.175702 121 111 106
0.270747 0.441459 0.180792 110 104 101
0.275837 0.441459 0.180792 106 100 98
0.275837 0.441459 0.185882 113 107 105
0.275837 0.446549 0.180792 88 81 77
0.275837 0.446549 0.185882 97 90 87
0.275837 0.441459 0.190972 96 91 90
0.275837 0.446549 0.190972 62 61 62
0.275837 0.451639 0.180792 118 111 108
0.275837 0.456729 0.180792 119 111 108
0.275837 0.456729 0.185882 103 93 87
0.275837 0.446549 0.206242 146 139 139
0.275837 0.446549 0.211332 130 123 122
0.275837 0.446549 0.216422 133 125 123
0.275837 0.451639 0.201152 136 129 128
0.275837 0.451639 0.206242 132 124 123
0.275837 0.456729 0.201152 116 109 108
0.275837 0.456729 0.206242 118 111 109
0.275837 0.451639 0.211332 126 118 116
0.275837 0.451639 0.216422 119 110 106
0.275837 0.456729 0.211332 120 113 111
0.275837 0.456729 0.216422 128 120 118
0.275837 0.461819 0.180792 112 104 100
0.275837 0.461819 0.185882 104 94 89
0.275837 0.466909 0.180792 112 102 96
0.275837 0.466909 0.185882 104 94 88
0.275837 0.461819 0.190972 115 105 100
0.275837 0.466909 0.190972 99 89 82
0.275837 0.466909 0.196062 95 85 78
0.270747 0.477089 0.180792 135 126 123
0.275837 0.471999 0.180792 112 101 94
0.275837 0.471999 0.185882 110 100 93
0.275837 0.477089 0.180792 125 116 113
0.275837 0.477089 0.185882 125 116 112
0.275837 0.471999 0.190972 112 103 98
0.275837 0.471999 0.196062 100 90 84
0.275837 0.477089 0.190972 133 126 126
0.275837 0.477089 0.196062 128 121 119
0.265657 0.477089 0.216422 146 135 132
0.275837 0.461819 0.206242 119 113 111
0.270747 0.466909 0.216422 105 92 84
0.275837 0.461819 0.211332 114 107 104
0.275837 0.461819 0.216422 108 99 94
0.275837 0.466909 0.211332 101 92 88
0.275837 0.466909 0.216422 106 96 90
0.275837 0.471999 0.201152 117 108 105
0.275837 0.471999 0.206242 118 109 106
0.275837 0.477089 0.201152 126 117 115
0.275837 0.477089 0.206242 120 111 108
0.270747 0.471999 0.216422 100 89 84
0.270747 0.477089 0.211332 136 128 128
0.270747 0.477089 0.216422 128 119 116
0.275837 0.471999 0.211332 97 90 88
0.275837 0.471999 0.216422 109 102 99
0.275837 0.477089 0.211332 131 125 124
0.275837 0.477089 0.216422 133 126 126
0.280927 0.446549 0.180792 79 73 70
0.280927 0.446549 0.185882 76 70 68
0.280927 0.441459 0.190972 74 70 68
0.280927 0.441459 0.196062 106 99 96
0.280927 0.446549 0.190972 74 70 69
0.280927 0.446549 0.196062 136 128 126
0.280927 0.451639 0.180792 106 97 92
0.280927 0.451639 0.185882 93 86 83
0.280927 0.456729 0.185882 112 103 99
0.280927 0.451639 0.190972 88 84 83
0.280927 0.451639 0.196062 123 116 115
0.280927 0.456729 0.190972 121 115 113
0.280927 0.456729 0.196062 110 104 103
0.280927 0.441459 0.201152 141 134 132
0.280927 0.441459 0.206242 148 141 141
0.280927 0.446549 0.201152 124 114 109
0.280927 0.446549 0.206242 143 135 135
0.280927 0.441459 0.211332 146 138 138
0.280927 0.441459 0.216422 142 135 134
0.280927 0.446549 0.211332 142 135 134
0.280927 0.446549 0.216422 134 127 126
0.280927 0.451639 0.201152 138 129 127
0.280927 0.456729 0.201152 110 104 103
0.280927 0.451639 0.211332 130 123 122
0.280927 0.451639 0.216422 131 122 120
0.280927 0.461819 0.185882 93 83 77
0.280927 0.461819 0.190972 113 106 103
0.280927 0.461819 0.196062 120 113 111
0.280927 0.466909 0.190972 122 113 109
0.280927 0.466909 0.196062 115 107 103
0.280927 0.471999 0.196062 104 95 91
0.280927 0.461819 0.201152 111 104 102
0.280927 0.461819 0.206242 102 98 97
0.280927 0.466909 0.201152 117 109 107
0.280927 0.466909 0.206242 120 113 111
0.280927 0.466909 0.211332 100 94 93
0.280927 0.471999 0.201152 117 109 106
0.280927 0.471999 0.206242 110 101 97
0.280927 0.477089 0.206242 120 112 109
0.280927 0.471999 0.211332 122 114 113
0.280927 0.477089 0.211332 127 120 119
0.260567 0.482179 0.145162 136 129 128
0.260567 0.482179 0.150252 130 124 123
0.260567 0.482179 0.155342 129 122 120
0.260567 0.487269 0.150252 128 122 122
0.260567 0.487269 0.155342 113 107 106
0.260567 0.492359 0.145162 125 119 118
0.260567 0.497449 0.145162 134 128 127
0.260567 0.492359 0.150252 124 118 116
0.260567 0.492359 0.155342 130 124 123
0.260567 0.497449 0.150252 134 128 128
0.260567 0.497449 0.155342 123 116 114
0.260567 0.482179 0.160432 136 129 128
0.260567 0.487269 0.160432 119 112 110
0.265657 0.482179 0.160432 123 117 115
0.265657 0.482179 0.165522 116 108 105
0.265657 0.487269 0.160432 121 114 111
0.265657 0.487269 0.165522 114 107 103
0.265657 0.482179 0.170612 110 100 95
0.265657 0.487269 0.170612 116 108 104
0.260567 0.492359 0.160432 130 123 122
0.260567 0.497449 0.160432 123 117 115
0.265657 0.492359 0.160432 126 119 117
0.265657 0.492359 0.165522 116 110 108
0.265657 0.497449 0.160432 128 122 121
0.265657 0.497449 0.165522 137 131 131
0.265657 0.492359 0.170612 119 112 110
0.265657 0.497449 0.170612 141 135 135
0.270747 0.482179 0.165522 116 110 109
0.270747 0.482179 0.170612 112 103 98
0.270747 0.482179 0.175702 135 127 126
0.270747 0.487269 0.170612 122 113 109
0.270747 0.487269 0.175702 140 133 132
0.270747 0.492359 0.170612 130 124 123
0.270747 0.492359 0.175702 134 127 126
0.270747 0.497449 0.170612 144 137 137
0.270747 0.497449 0.175702 142 135 134
0.260567 0.502539 0.145162 136 130 130
0.260567 0.507629 0.145162 133 126 125
0.260567 0.502539 0.150252 132 126 125
0.260567 0.502539 0.155342 125 118 117
0.260567 0.507629 0.150252 132 125 124
0.260567 0.507629 0.155342 131 124 123
0.260567 0.512719 0.145162 132 126 125
0.260567 0.517809 0.145162 126 119 119
0.260567 0.512719 0.150252 113 107 107
0.260567 0.512719 0.155342 111 106 105
0.260567 0.517809 0.150252 119 113 112
0.260567 0.517809 0.155342 118 111 110
0.260567 0.502539 0.160432 135 129 129
0.260567 0.507629 0.160432 134 128 128
0.265657 0.502539 0.160432 131 124 124
0.265657 0.502539 0.165522 127 121 120
0.265657 0.507629 0.160432 137 131 131
0.265657 0.507629 0.165522 121 114 113
0.265657 0.502539 0.170612 130 123 123
0.265657 0.502539 0.175702 129 123 122
0.265657 0.507629 0.170612 124 116 113
0.265657 0.507629 0.175702 137 130 130
0.260567 0.512719 0.160432 129 124 123
0.260567 0.517809 0.160432 108 102 100
0.265657 0.512719 0.160432 139 133 133
0.265657 0.512719 0.165522 134 127 126
0.265657 0.517809 0.160432 121 116 115
0.265657 0.517809 0.165522 138 131 130
0.265657 0.512719 0.170612 114 104 99
0.265657 0.512719 0.175702 122 114 110
0.265657 0.517809 0.170612 131 123 121
0.265657 0.517809 0.175702 112 101 95
0.270747 0.502539 0.175702 131 125 125
0.270747 0.507629 0.175702 132 126 125
0.270747 0.482179 0.180792 140 133 132
0.270747 0.482179 0.185882 134 127 126
0.270747 0.487269 0.180792 140 133 133
0.270747 0.487269 0.185882 129 122 120
0.275837 0.482179 0.180792 144 137 135
0.275837 0.482179 0.185882 137 129 128
0.270747 0.482179 0.190972 133 125 124
0.270747 0.487269 0.190972 129 121 119
0.270747 0.487269 0.196062 129 119 116
0.275837 0.482179 0.190972 129 122 120
0.275837 0.482179 0.196062 137 129 129
0.270747 0.492359 0.180792 137 130 129
0.270747 0.492359 0.185882 110 101 98
0.270747 0.497449 0.180792 139 132 131
0.270747 0.497449 0.185882 132 125 124
0.270747 0.492359 0.190972 119 111 108
0.270747 0.492359 0.196062 131 124 122
0.270747 0.497449 0.190972 135 129 128
0.270747 0.497449 0.196062 145 138 138
0.260567 0.487269 0.216422 117 111 110
0.265657 0.482179 0.216422 140 130 127
0.265657 0.487269 0.211332 138 131 131
0.265657 0.487269 0.216422 128 120 119
0.265657 0.497449 0.201152 135 127 125
0.265657 0.497449 0.206242 139 130 128
0.260567 0.492359 0.216422 147 135 130
0.260567 0.497449 0.211332 156 147 145
0.260567 0.497449 0.216422 158 148 146
0.265657 0.492359 0.211332 133 125 124
0.265657 0.492359 0.216422 116 107 103
0.265657 0.497449 0.211332 150 140 138
0.270747 0.482179 0.206242 132 125 124
0.270747 0.487269 0.201152 130 122 121
0.270747 0.487269 0.206242 132 124 123
0.275837 0.482179 0.201152 133 126 124
0.275837 0.482179 0.206242 130 123 121
0.270747 0.482179 0.211332 137 130 130
0.270747 0.482179 0.216422 152 145 145
0.270747 0.487269 0.211332 134 126 125
0.275837 0.482179 0.211332 130 122 120
0.270747 0.492359 0.201152 132 124 122
0.270747 0.492359 0.206242 131 123 121
0.270747 0.497449 0.201152 131 124 122
0.270747 0.497449 0.206242 124 116 113
0.270747 0.492359 0.211332 128 121 119
0.260567 0.507629 0.196062 120 110 106
0.265657 0.507629 0.190972 145 137 136
0.265657 0.507629 0.196062 149 141 140
0.260567 0.517809 0.185882 142 135 135
0.265657 0.512719 0.180792 126 118 117
0.265657 0.512719 0.185882 130 124 123
0.265657 0.517809 0.180792 121 111 107
0.265657 0.517809 0.185882 136 129 129
0.260567 0.512719 0.196062 129 119 118
0.260567 0.517809 0.190972 123 115 113
0.260567 0.517809 0.196062 136 129 128
0.265657 0.512719 0.190972 132 125 123
0.265657 0.512719 0.196062 132 124 123
0.265657 0.517809 0.190972 111 102 99
0.270747 0.502539 0.180792 132 126 124
0.270747 0.502539 0.185882 128 120 119
0.270747 0.507629 0.180792 136 129 128
0.270747 0.507629 0.185882 138 131 130
0.270747 0.502539 0.190972 144 137 137
0.270747 0.502539 0.196062 148 141 141
0.270747 0.507629 0.190972 142 134 134
0.270747 0.507629 0.196062 151 143 143
0.270747 0.512719 0.180792 141 134 133
0.270747 0.512719 0.185882 134 127 127
0.260567 0.502539 0.201152 149 142 142
0.260567 0.502539 0.206242 140 132 131
0.260567 0.507629 0.201152 143 135 134
0.260567 0.507629 0.206242 136 129 128
0.265657 0.502539 0.201152 158 150 150
0.265657 0.502539 0.206242 162 154 154
0.265657 0.507629 0.201152 158 150 149
0.260567 0.502539 0.211332 136 128 127
0.260567 0.507629 0.211332 136 129 128
0.260567 0.512719 0.201152 137 130 128
0.260567 0.512719 0.206242 140 133 133
0.260567 0.517809 0.201152 143 136 136
0.270747 0.502539 0.201152 150 143 143
0.219847 0.522899 0.078992 105 94 84
0.219847 0.522899 0.084082 110 100 93
0.219847 0.527989 0.078992 102 89 77
0.219847 0.527989 0.084082 102 88 76
0.224937 0.522899 0.084082 119 111 107
0.224937 0.527989 0.084082 99 87 76
0.224937 0.522899 0.089172 124 118 116
0.224937 0.527989 0.089172 96 83 72
0.219847 0.533079 0.078992 99 85 73
0.219847 0.533079 0.084082 99 85 73
0.219847 0.538169 0.078992 96 84 72
0.219847 0.538169 0.084082 94 81 71
0.224937 0.533079 0.084082 96 83 70
0.224937 0.538169 0.084082 94 82 71
0.224937 0.533079 0.089172 93 80 68
0.224937 0.538169 0.089172 94 81 70
0.230027 0.522899 0.089172 129 123 123
0.230027 0.522899 0.094262 127 121 121
0.230027 0.527989 0.089172 104 94 86
0.230027 0.527989 0.094262 103 94 88
0.235117 0.522899 0.094262 123 116 115
0.235117 0.527989 0.094262 116 109 107
0.230027 0.533079 0.089172 92 79 67
0.230027 0.533079 0.094262 91 79 68
0.230027 0.538169 0.089172 93 80 69
0.230027 0.538169 0.094262 92 80 68
0.235117 0.533079 0.094262 90 78 68
0.235117 0.538169 0.094262 91 79 68
0.219847 0.543259 0.084082 93 81 71
0.219847 0.548349 0.084082 106 97 93
0.224937 0.543259 0.084082 94 82 71
0.224937 0.548349 0.084082 102 92 85
0.224937 0.543259 0.089172 94 82 71
0.224937 0.548349 0.089172 104 95 89
0.224937 0.548349 0.094262 130 125 124
0.219847 0.553439 0.084082 128 124 125
0.219847 0.558529 0.084082 116 112 114
0.219847 0.553439 0.089172 123 119 119
0.219847 0.558529 0.089172 112 109 111
0.224937 0.553439 0.089172 124 119 120
0.224937 0.553439 0.094262 123 119 119
0.224937 0.558529 0.089172 111 107 108
0.224937 0.558529 0.094262 102 99 100
0.230027 0.543259 0.089172 94 81 69
0.230027 0.543259 0.094262 93 80 68
0.230027 0.548349 0.089172 93 81 71
0.230027 0.548349 0.094262 97 87 79
0.235117 0.543259 0.094262 92 80 69
0.230027 0.553439 0.094262 117 112 112
0.230027 0.558529 0.094262 102 98 99
0.235117 0.522899 0.099352 123 117 115
0.235117 0.527989 0.099352 97 90 87
0.235117 0.533079 0.099352 88 77 69
0.235117 0.538169 0.099352 90 79 70
0.230027 0.548349 0.099352 93 83 75
0.235117 0.543259 0.099352 90 79 71
0.235117 0.543259 0.104442 101 96 95
0.235117 0.548349 0.099352 89 80 74
0.235117 0.548349 0.104442 101 96 96
0.230027 0.553439 0.099352 114 109 109
0.230027 0.558529 0.099352 101 98 99
0.230027 0.558529 0.104442 75 74 75
0.235117 0.553439 0.099352 105 99 98
0.235117 0.553439 0.104442 92 87 87
0.235117 0.558529 0.099352 92 90 92
0.235117 0.558529 0.104442 84 81 82
0.240207 0.522899 0.099352 117 112 111
0.240207 0.522899 0.104442 118 113 113
0.240207 0.527989 0.099352 93 87 84
0.240207 0.527989 0.104442 113 108 107
0.240207 0.522899 0.109532 121 116 116
0.240207 0.527989 0.109532 104 101 101
0.245297 0.522899 0.109532 118 114 114
0.245297 0.522899 0.114622 121 117 119
0.245297 0.527989 0.109532 109 106 108
0.245297 0.527989 0.114622 107 104 105
0.240207 0.533079 0.099352 86 78 73
0.240207 0.533079 0.104442 91 86 84
0.240207 0.538169 0.099352 91 85 83
0.240207 0.538169 0.104442 98 93 92
0.245297 0.538169 0.104442 104 100 101
0.240207 0.533079 0.109532 99 95 94
0.240207 0.538169 0.109532 73 68 65
0.245297 0.533079 0.109532 96 91 90
0.245297 0.533079 0.114622 91 87 88
0.245297 0.538169 0.109532 82 77 76
0.245297 0.538169 0.114622 60 59 60
0.250387 0.522899 0.114622 111 106 106
0.255477 0.527989 0.114622 72 71 71
0.250387 0.533079 0.109532 64 61 60
0.250387 0.533079 0.114622 67 64 63
0.250387 0.538169 0.109532 72 67 65
0.250387 0.538169 0.114622 66 63 63
0.255477 0.533079 0.109532 80 76 75
0.255477 0.533079 0.114622 80 77 77
0.255477 0.538169 0.109532 77 72 69
0.245297 0.522899 0.119712 130 127 129
0.245297 0.527989 0.119712 109 105 106
0.245297 0.533079 0.119712 84 81 81
0.250387 0.522899 0.119712 119 116 117
0.250387 0.522899 0.124802 105 101 101
0.250387 0.527989 0.119712 91 88 89
0.250387 0.527989 0.124802 81 78 78
0.255477 0.527989 0.119712 74 72 72
0.255477 0.527989 0.124802 79 76 76
0.250387 0.522899 0.129892 98 93 91
0.255477 0.522899 0.129892 93 88 86
0.255477 0.522899 0.134982 93 87 85
0.255477 0.527989 0.129892 84 79 77
0.255477 0.527989 0.134982 69 64 60
0.250387 0.533079 0.119712 69 66 66
0.240207 0.543259 0.099352 90 85 84
0.240207 0.543259 0.104442 93 89 90
0.240207 0.548349 0.104442 99 95 95
0.245297 0.543259 0.104442 99 96 97
0.240207 0.543259 0.109532 83 80 81
0.240207 0.548349 0.109532 84 80 80
0.245297 0.543259 0.109532 83 79 79
0.245297 0.548349 0.109532 63 60 59
0.240207 0.553439 0.104442 108 103 103
0.240207 0.558529 0.104442 100 97 97
0.240207 0.553439 0.109532 91 88 88
0.240207 0.558529 0.109532 80 78 79
0.245297 0.553439 0.109532 62 59 59
0.245297 0.558529 0.109532 62 59 59
0.250387 0.543259 0.109532 80 74 70
0.250387 0.548349 0.109532 86 79 74
0.255477 0.543259 0.109532 85 77 72
0.255477 0.548349 0.109532 90 82 77
