ply
format ascii 1.0
element vertex 1258
property double x
property double y
property double z
property uchar red
property uchar green
property uchar blue
end_header
0.102361 0.033737 0.213918 204 165 100
0.151014 0.035653 0.215551 218 196 118
0.288779 0.014661 0.113706 190 188 170
0.289906 0.014577 0.113173 231 222 190
0.295258 0.012874 0.104477 236 225 197
0.021103 0.012948 0.150718 233 219 175
0.022276 0.012999 0.150757 219 213 170
0.293077 0.012167 0.106964 237 225 198
0.211752 0.980885 0.224723 252 235 178
0.223773 0.980586 0.225902 254 209 150
0.244622 0.984607 0.203288 252 214 166
0.256846 0.981766 0.199261 242 201 171
0.229168 0.975489 0.2282 253 236 194
0.230148 0.971331 0.231938 253 253 236
0.242686 0.974409 0.214519 252 245 203
0.170247 0.973092 0.217746 251 182 77
0.234645 0.96921 0.230726 253 254 243
0.234685 0.968059 0.230694 254 254 252
0.263951 0.974798 0.192339 208 174 168
0.256378 0.966931 0.216988 254 228 155
0.249393 0.959588 0.232458 253 253 240
0.273808 0.960568 0.179863 186 169 171
0.274914 0.960626 0.179503 184 169 171
0.273244 0.958913 0.182659 200 168 166
0.257484 0.933017 0.232731 253 177 70
0.255372 0.931741 0.233503 244 158 70
0.164676 0.930356 0.221667 251 240 198
0.202252 0.928023 0.235434 226 187 117
0.161363 0.929842 0.217727 250 243 204
0.126948 0.915124 0.192535 185 152 97
0.270553 0.911791 0.207016 215 136 63
0.24073 0.90375 0.235887 220 145 60
0.26596 0.906357 0.212119 205 110 50
0.205729 0.899968 0.230144 245 145 60
0.208389 0.899766 0.231491 245 152 59
0.248756 0.896855 0.228538 228 139 71
0.196748 0.89145 0.255574 255 196 105
0.164624 0.886822 0.247733 252 197 104
0.242685 0.890292 0.226127 245 157 84
0.200177 0.881128 0.263412 223 132 65
0.206791 0.879529 0.266636 254 197 99
0.067905 0.893725 0.127766 215 177 99
0.072564 0.892066 0.13089 177 137 64
0.208122 0.870155 0.260642 255 198 108
0.177811 0.86759 0.269602 240 164 88
0.076141 0.876037 0.141508 250 240 198
0.234587 0.862583 0.242662 255 178 75
0.0468 0.875791 0.11639 186 173 166
0.249474 0.865902 0.186773 236 155 89
0.212393 0.851673 0.270804 218 127 51
0.213684 0.850066 0.266057 222 144 42
0.211 0.843389 0.273266 193 106 36
0.230904 0.846087 0.254446 218 115 47
0.240208 0.848242 0.239085 250 157 67
0.210009 0.841077 0.273551 182 109 43
0.221492 0.839204 0.262795 225 143 50
0.188867 0.835557 0.271199 184 108 46
0.240763 0.840106 0.240094 196 105 33
0.223688 0.834854 0.261468 193 121 44
0.137769 0.835831 0.240068 228 180 99
0.060241 0.846898 0.142138 234 200 137
0.083464 0.843703 0.167873 246 229 177
0.216519 0.830947 0.264814 185 115 54
0.165064 0.826295 0.253193 196 159 94
0.164893 0.824667 0.256956 194 157 95
0.165975 0.824722 0.256603 194 158 92
0.231476 0.824853 0.242501 188 132 63
0.173097 0.821377 0.256423 180 144 90
0.230773 0.824126 0.239165 184 124 57
0.143167 0.817466 0.267121 244 223 160
0.120518 0.81793 0.252631 243 229 175
0.207071 0.81431 0.260919 193 129 62
0.208195 0.814341 0.260771 202 137 60
0.209192 0.814436 0.260086 210 147 58
0.210952 0.814749 0.257711 219 145 64
0.208235 0.813209 0.260739 197 131 62
0.172513 0.811559 0.261838 204 151 104
0.172622 0.81039 0.262076 214 153 111
0.173675 0.810457 0.261622 195 148 103
0.175089 0.809235 0.262413 187 148 98
0.118408 0.808769 0.252052 247 235 186
0.188334 0.806973 0.254064 185 148 95
0.186409 0.803943 0.260093 184 149 98
0.186597 0.805001 0.251313 185 150 100
0.200538 0.806365 0.241312 184 148 98
0.203189 0.806236 0.242642 186 149 97
0.176149 0.802602 0.260796 196 149 107
0.20303 0.803486 0.246486 183 146 97
0.218594 0.805259 0.233213 198 157 97
0.177511 0.800291 0.261185 192 149 105
0.116692 0.799954 0.248565 245 225 168
0.119638 0.794091 0.249738 235 212 143
0.184009 0.792793 0.257782 207 160 102
0.178185 0.789942 0.262101 251 238 188
0.209079 0.791699 0.25033 186 152 105
0.218858 0.793328 0.237327 198 162 108
0.117059 0.790134 0.243812 226 193 125
0.217346 0.792362 0.235605 197 162 111
0.208052 0.789955 0.245538 183 152 100
0.217856 0.790994 0.237613 196 163 111
0.166899 0.779152 0.275788 243 221 163
0.222713 0.783699 0.23188 210 173 116
0.137388 0.776542 0.264942 240 224 162
0.165411 0.77493 0.283029 236 207 143
0.178055 0.774039 0.282476 240 216 155
0.181633 0.772935 0.282723 242 217 157
0.183402 0.773199 0.280541 242 220 163
0.232594 0.782551 0.201996 205 173 122
0.178957 0.772456 0.276424 240 213 153
0.195358 0.77312 0.272533 248 233 183
0.184309 0.771107 0.27914 241 216 159
0.235311 0.777909 0.191834 204 172 121
0.165977 0.765827 0.283678 214 179 121
0.186615 0.766713 0.278314 239 211 147
0.160199 0.764625 0.283549 200 164 113
0.166028 0.764698 0.283681 210 176 116
0.182131 0.765476 0.27868 235 203 138
0.168389 0.763607 0.283662 212 175 120
0.21677 0.765223 0.243378 218 185 127
0.243274 0.769096 0.17752 232 198 137
0.248096 0.770291 0.166825 195 181 175
0.230222 0.764942 0.193049 189 161 114
0.246751 0.767481 0.171183 229 205 156
0.249655 0.768427 0.162512 187 181 179
0.193282 0.752527 0.274606 232 194 128
0.224839 0.759599 0.210448 201 170 117
0.191355 0.751226 0.275978 217 182 117
0.228533 0.758389 0.200254 184 153 105
0.250157 0.762465 0.163727 192 181 177
0.189639 0.74921 0.273278 208 172 116
0.222777 0.756044 0.211058 210 177 118
0.224637 0.756295 0.208892 195 160 107
0.250857 0.761564 0.161185 188 182 178
0.148719 0.748401 0.263065 174 145 101
0.222819 0.754896 0.211026 209 177 121
0.229416 0.756802 0.193177 187 158 112
0.230385 0.75745 0.186885 191 161 112
0.223603 0.753952 0.209079 198 167 114
0.223528 0.752853 0.208526 195 162 112
0.224196 0.751956 0.206052 184 148 97
0.223733 0.749886 0.203548 182 147 104
0.119012 0.742987 0.243134 217 187 127
0.148711 0.741684 0.261857 177 148 100
0.147176 0.740672 0.260263 176 147 100
0.21913 0.745482 0.224209 194 165 116
0.221076 0.746186 0.217338 209 179 123
0.158186 0.739129 0.266472 177 149 101
0.158408 0.737933 0.267144 177 149 103
0.221788 0.744139 0.214873 203 179 144
0.230299 0.74723 0.184468 190 157 106
0.229371 0.745962 0.1854 190 155 102
0.225599 0.742826 0.2053 180 147 117
0.21661 0.739395 0.227435 185 158 116
0.218829 0.739972 0.221808 205 173 124
0.219533 0.74018 0.219764 208 178 122
0.222407 0.740996 0.211768 189 181 173
0.223132 0.741199 0.209782 188 181 176
0.221627 0.739686 0.213289 193 180 169
0.2165 0.737188 0.226526 190 164 120
0.200189 0.731589 0.270624 211 181 120
0.217213 0.736263 0.224321 199 169 120
0.230867 0.740661 0.180326 193 159 103
0.168387 0.730061 0.268349 197 157 114
0.113522 0.732315 0.220613 177 144 93
0.114331 0.732463 0.219176 179 149 95
0.18224 0.729245 0.267799 186 152 108
0.211123 0.731655 0.247932 211 182 129
0.217142 0.734039 0.223579 201 170 123
0.22413 0.736122 0.202667 189 182 177
0.225516 0.736551 0.198345 184 166 148
0.199356 0.728565 0.266536 201 172 120
0.218492 0.73334 0.219028 206 175 118
0.107747 0.729849 0.220989 180 150 101
0.224603 0.734153 0.199084 189 181 178
0.2259 0.734616 0.194341 184 164 142
0.227146 0.735103 0.189334 186 157 103
0.247137 0.73757 0.166973 222 186 129
0.107956 0.729043 0.217151 179 147 94
0.112699 0.729558 0.212517 178 147 94
0.219066 0.731336 0.215969 199 174 142
0.227715 0.734228 0.186349 187 156 103
0.231874 0.735044 0.178382 195 160 104
0.104322 0.727841 0.21682 182 151 98
0.193441 0.725597 0.2606 191 158 106
0.229874 0.734199 0.174448 192 159 98
0.102104 0.726592 0.217293 185 156 105
0.191971 0.724134 0.263894 192 159 107
0.194693 0.724472 0.260774 192 160 107
0.220304 0.729546 0.210653 188 183 177
0.221662 0.729972 0.20627 188 183 179
0.236204 0.732524 0.181489 201 171 110
0.241914 0.733224 0.175085 214 179 123
0.10276 0.726037 0.210695 184 156 96
0.104498 0.726292 0.208246 183 153 97
0.169962 0.721721 0.273185 239 209 149
0.226939 0.730626 0.187502 184 156 127
0.23936 0.732106 0.173992 208 176 119
0.103968 0.725308 0.2061 178 149 91
0.168578 0.720659 0.272102 240 214 153
0.249235 0.731866 0.153023 230 197 134
0.096839 0.722834 0.206071 188 159 100
0.095194 0.721792 0.204278 190 162 103
0.178283 0.71778 0.268535 242 221 163
0.213864 0.722159 0.227499 185 156 115
0.218634 0.723588 0.212537 188 182 178
0.093644 0.720719 0.202834 189 163 105
0.205555 0.71915 0.246634 193 161 112
0.215153 0.721464 0.222724 197 168 117
0.213082 0.719745 0.228737 188 156 118
0.217824 0.721168 0.213694 190 182 179
0.218516 0.721369 0.211579 190 182 179
0.222573 0.722622 0.198313 187 182 179
0.245106 0.725927 0.166237 219 178 127
0.213664 0.718854 0.225983 195 165 121
0.215693 0.719461 0.219539 193 180 165
0.22186 0.72129 0.200158 188 183 179
0.227916 0.722072 0.179429 176 156 138
0.136909 0.711912 0.260925 104 92 80
0.214023 0.716914 0.22203 191 180 164
0.215518 0.717266 0.218337 190 182 179
0.222459 0.719254 0.197137 189 182 179
0.217622 0.716717 0.211929 190 183 180
0.129499 0.710004 0.254768 161 132 82
0.136251 0.709866 0.258045 98 89 83
0.215343 0.71507 0.217139 191 183 179
0.253785 0.722185 0.144146 191 182 179
0.136071 0.708795 0.257168 104 88 85
0.214664 0.713741 0.219067 190 182 179
0.226044 0.717721 0.175419 187 181 175
0.133347 0.707732 0.255564 102 99 94
0.217409 0.713396 0.210335 189 184 181
0.225252 0.715953 0.182306 188 183 179
0.225669 0.716256 0.178848 188 183 180
0.133437 0.706579 0.255709 98 94 91
0.24936 0.715427 0.167407 249 238 202
0.214076 0.708998 0.220735 189 182 179
0.222118 0.710974 0.1993 187 182 178
0.248824 0.714013 0.170229 249 238 202
0.214343 0.708204 0.216576 188 183 179
0.216485 0.708754 0.210557 188 183 179
0.218242 0.70901 0.207954 188 183 180
0.248667 0.712463 0.174818 249 237 197
0.132863 0.701876 0.257194 160 132 105
0.20834 0.700733 0.25014 244 221 162
0.215439 0.703734 0.215365 188 182 179
0.209932 0.700713 0.236854 242 219 158
0.204229 0.69671 0.256648 239 213 149
0.113674 0.69435 0.245924 169 140 92
0.188707 0.690524 0.273031 238 205 140
0.111018 0.689839 0.244101 175 145 98
0.168142 0.685147 0.277916 208 174 116
0.209423 0.688103 0.252406 222 187 130
0.227966 0.692123 0.206064 252 247 216
0.247759 0.691335 0.177418 210 174 128
0.249164 0.69129 0.178475 207 174 127
0.141692 0.68064 0.269322 201 168 114
0.237893 0.685386 0.207192 238 213 156
0.239753 0.6822 0.2043 219 183 129
0.224059 0.679671 0.217724 250 238 203
0.210796 0.67686 0.236029 210 179 122
0.239064 0.679757 0.206045 210 174 128
0.240819 0.679997 0.203355 209 173 131
0.239107 0.678612 0.206013 206 171 127
0.099013 0.672025 0.231954 194 158 114
0.190842 0.672064 0.264042 216 190 129
0.205171 0.673697 0.246357 213 182 126
0.192234 0.671256 0.260016 210 182 122
0.164706 0.667556 0.270309 202 178 126
0.239036 0.674103 0.204769 214 184 134
0.191202 0.666393 0.264479 239 187 122
0.195941 0.66682 0.260128 245 222 157
0.194443 0.664314 0.263101 248 234 182
0.194325 0.663229 0.2624 246 225 169
0.19615 0.663417 0.260366 246 228 172
0.180906 0.661301 0.268901 188 153 105
0.231569 0.666517 0.212 213 184 134
0.228346 0.663382 0.223254 210 182 134
0.229916 0.664003 0.214629 215 185 139
0.227197 0.661434 0.217691 216 189 139
0.196961 0.655716 0.257441 219 180 126
0.120679 0.65003 0.242305 200 170 116
0.19732 0.651159 0.258094 224 184 127
0.214082 0.650317 0.224806 226 196 141
0.136792 0.641785 0.234534 173 144 95
0.20612 0.643779 0.23466 233 207 152
0.206851 0.643912 0.232799 232 207 152
0.17809 0.639852 0.267658 221 189 129
0.204624 0.641565 0.232821 232 207 152
0.203627 0.639239 0.233107 225 205 146
0.138602 0.634006 0.230986 176 152 102
0.183795 0.63046 0.236659 202 178 126
0.136714 0.627662 0.240839 183 155 109
0.179708 0.629072 0.238886 204 182 135
0.13983 0.627208 0.229939 169 146 100
0.139185 0.622525 0.231195 178 151 106
0.164823 0.622004 0.234377 182 163 118
0.17604 0.622215 0.236993 188 161 115
0.213818 0.619475 0.20205 188 180 169
0.196495 0.614193 0.227821 196 161 116
0.211115 0.615789 0.204991 169 149 121
0.14269 0.611487 0.224398 167 146 95
0.136494 0.604991 0.235958 205 172 116
0.133584 0.60251 0.237976 207 175 116
0.135925 0.602591 0.237889 207 174 115
0.135834 0.601467 0.237343 206 175 118
0.136698 0.601551 0.236131 205 172 120
0.19163 0.592523 0.222933 189 157 101
0.188355 0.589899 0.228402 194 162 106
0.224511 0.59077 0.18065 193 180 173
0.228066 0.583046 0.173654 188 181 175
0.214788 0.574257 0.212823 229 212 152
0.212782 0.571857 0.213841 232 208 146
0.211163 0.570556 0.216759 231 203 145
0.213105 0.570685 0.215018 231 205 147
0.187818 0.566772 0.236382 241 215 145
0.178554 0.563016 0.236131 197 168 112
0.190587 0.562439 0.232442 241 213 148
0.190934 0.557875 0.233011 237 208 139
0.166902 0.554885 0.22552 168 149 107
0.188731 0.549835 0.232044 229 196 129
0.191093 0.548666 0.236781 232 196 133
0.073002 0.532294 0.192756 213 179 116
0.210119 0.53735 0.215766 216 195 136
0.193547 0.530521 0.238612 242 217 152
0.232755 0.519315 0.181701 175 174 172
0.217532 0.498839 0.204368 226 201 139
0.218198 0.497735 0.20189 220 199 139
0.21105 0.488194 0.209844 226 156 151
0.110444 0.482478 0.196934 194 174 129
0.216672 0.483866 0.207832 224 161 158
0.212969 0.482546 0.21192 211 163 162
0.216813 0.482725 0.208211 213 157 154
0.202151 0.479754 0.215394 198 148 148
0.191536 0.476973 0.219694 194 141 144
0.214324 0.478025 0.211772 190 146 151
0.192968 0.475896 0.220548 189 139 140
0.211361 0.476752 0.219022 191 142 144
0.055553 0.465817 0.167548 179 168 164
0.055564 0.464633 0.167388 178 168 163
0.207608 0.471997 0.217052 186 137 140
0.208703 0.472047 0.216721 184 136 140
0.210301 0.470967 0.213263 173 135 142
0.220967 0.470306 0.208401 247 190 88
0.199516 0.467056 0.221606 174 135 142
0.223325 0.448587 0.203882 246 188 90
0.217966 0.443744 0.205174 246 212 128
0.218744 0.443759 0.203426 245 211 123
0.063711 0.434287 0.169255 184 170 125
0.239438 0.441075 0.184639 191 173 168
0.239379 0.438751 0.183867 190 173 167
0.235042 0.4374 0.185333 218 153 137
0.237636 0.437462 0.181017 188 148 153
0.239121 0.43756 0.182421 190 173 167
0.201593 0.434934 0.208957 203 185 131
0.2377 0.43515 0.180805 191 146 148
0.056135 0.424318 0.162599 173 160 153
0.227907 0.430172 0.18889 241 213 126
0.195583 0.388468 0.204056 235 207 145
0.244133 0.388792 0.167468 196 186 177
0.203643 0.3857 0.177167 198 167 125
0.204998 0.385625 0.17271 188 158 128
0.199262 0.384865 0.193839 224 190 133
0.203124 0.38343 0.179587 199 169 123
0.205933 0.383292 0.171103 185 157 126
0.206372 0.383202 0.167812 181 146 125
0.204873 0.382079 0.171427 184 157 126
0.204008 0.379734 0.172359 189 159 120
0.182173 0.37737 0.205155 234 207 147
0.204997 0.377217 0.165778 182 147 124
0.175318 0.375852 0.205933 233 206 145
0.185492 0.375199 0.203738 232 201 143
0.199548 0.372879 0.182479 216 183 128
0.116876 0.367088 0.18666 218 197 142
0.183189 0.371587 0.203301 230 199 136
0.204785 0.371282 0.163612 165 118 113
0.115246 0.365752 0.184848 222 202 146
0.113614 0.364413 0.183029 223 196 138
0.19777 0.369568 0.189401 224 191 132
0.217956 0.370116 0.173963 196 147 64
0.108734 0.362939 0.182653 225 198 141
0.190393 0.368129 0.193078 231 202 140
0.177129 0.366553 0.201797 229 196 131
0.191837 0.365716 0.188669 230 198 136
0.192939 0.365765 0.188312 228 196 135
0.191885 0.364557 0.188633 230 197 136
0.111413 0.357649 0.164489 214 185 119
0.173629 0.36286 0.201337 227 194 129
0.19268 0.363576 0.19177 229 198 134
0.110796 0.356519 0.166539 216 187 121
0.108726 0.355265 0.167683 219 187 122
0.111235 0.355231 0.163383 216 185 121
0.254109 0.363897 0.169666 196 185 177
0.10887 0.354108 0.168011 218 187 123
0.253156 0.362716 0.170476 201 185 170
0.254126 0.362729 0.169477 196 185 176
0.108306 0.352594 0.161086 219 186 123
0.255057 0.361559 0.168018 195 186 176
0.106008 0.349109 0.165537 222 189 124
0.101328 0.347667 0.166032 224 192 129
0.257021 0.355978 0.170412 196 185 176
0.105954 0.344333 0.16447 222 190 125
0.192402 0.3504 0.182907 219 185 123
0.10215 0.341906 0.16803 226 194 131
0.10547 0.341835 0.162223 223 192 128
0.167316 0.347451 0.201652 234 204 135
0.16698 0.345027 0.19983 237 205 138
0.189521 0.34474 0.189642 220 184 124
0.108016 0.337239 0.161767 222 190 125
0.120329 0.336371 0.152749 194 165 107
0.173653 0.342072 0.202144 240 213 146
0.175008 0.342188 0.202834 240 213 144
0.172602 0.340866 0.202465 240 213 147
0.103607 0.333475 0.162866 225 193 127
0.114543 0.333915 0.158148 212 180 122
0.171165 0.339558 0.201212 239 212 145
0.172565 0.339687 0.202079 239 212 145
0.173749 0.339759 0.202073 240 212 147
0.173669 0.338569 0.201514 239 211 143
0.172563 0.337348 0.20161 237 208 142
0.106493 0.330159 0.163901 225 193 127
0.168796 0.335903 0.200543 234 202 137
0.171266 0.336076 0.200932 235 205 139
0.172452 0.336148 0.200923 235 205 140
0.230858 0.338484 0.176907 195 144 136
0.106483 0.328964 0.163647 224 193 128
0.260508 0.339152 0.177414 205 181 161
0.164824 0.33323 0.198438 231 199 134
0.26165 0.338041 0.176977 203 188 176
0.166729 0.332074 0.196282 232 202 134
0.187602 0.332991 0.189176 234 205 140
0.162474 0.330746 0.198101 231 202 133
0.106541 0.32396 0.158415 223 192 127
0.107587 0.32399 0.15776 223 191 130
0.198653 0.329479 0.15426 146 96 95
0.198644 0.328288 0.153967 146 98 94
0.117854 0.321845 0.149947 198 169 110
0.120328 0.321752 0.145367 187 158 99
0.198681 0.327111 0.15388 150 98 91
0.118456 0.320555 0.147347 192 164 107
0.198721 0.325934 0.153807 152 101 93
0.264078 0.331176 0.175708 179 176 164
0.264096 0.328836 0.175239 175 172 161
0.181064 0.323323 0.189758 234 204 141
0.075882 0.310955 0.151882 180 164 119
0.263369 0.321873 0.175762 177 171 159
0.075783 0.307316 0.150892 183 166 118
0.076649 0.307295 0.149568 200 172 121
0.195666 0.316082 0.169409 214 174 120
0.263386 0.31953 0.175297 184 181 160
0.108005 0.307343 0.156278 219 188 120
0.109139 0.304999 0.155513 217 185 122
0.110174 0.304745 0.150175 212 181 116
0.120317 0.3016 0.146226 186 158 100
0.112411 0.296721 0.152489 210 180 117
0.113607 0.296499 0.14773 206 175 114
0.115596 0.296815 0.15066 205 173 112
0.164427 0.302547 0.190835 221 188 130
0.165628 0.300269 0.190404 223 189 124
0.116822 0.292089 0.149786 201 171 115
0.120661 0.292083 0.145756 188 159 104
0.12033 0.290774 0.144252 187 159 101
0.105904 0.289281 0.154286 223 190 126
0.188813 0.296237 0.176749 238 211 149
0.174343 0.291174 0.185127 238 212 145
0.190263 0.29167 0.176862 237 212 150
0.101598 0.283128 0.155385 228 196 131
0.105362 0.282204 0.155529 225 193 128
0.09435 0.277849 0.15488 228 197 131
0.205711 0.285307 0.154552 172 127 120
0.094497 0.276693 0.155208 230 198 131
0.120693 0.277962 0.147894 196 166 107
0.121489 0.276696 0.146023 191 164 107
0.09959 0.273155 0.150709 228 197 130
0.097973 0.27206 0.153604 230 198 133
0.118249 0.267633 0.155243 215 183 122
0.103765 0.265475 0.155651 228 195 131
0.118013 0.266347 0.154115 215 183 122
0.119042 0.266364 0.153386 212 181 120
0.118807 0.263873 0.152036 213 182 123
0.174768 0.269203 0.18729 236 207 143
0.191481 0.269218 0.172292 236 207 145
0.193483 0.266851 0.170142 234 205 144
0.172417 0.265499 0.186724 235 206 139
0.110802 0.257444 0.15299 225 191 127
0.09988 0.254645 0.157448 231 201 135
0.118659 0.254173 0.149664 215 184 124
0.124586 0.254167 0.144243 195 165 112
0.173454 0.259594 0.184889 236 206 138
0.100858 0.251027 0.155883 231 200 134
0.101984 0.251075 0.155516 231 200 133
0.097493 0.248099 0.152026 233 203 137
0.101399 0.248446 0.152888 231 200 133
0.103677 0.248559 0.152248 229 198 131
0.087792 0.245872 0.147717 232 203 137
0.096567 0.246913 0.152926 234 205 139
0.127796 0.246608 0.136302 179 150 100
0.175451 0.253668 0.182077 239 212 142
0.188794 0.250288 0.17216 237 209 146
0.255236 0.251849 0.148941 251 246 228
0.189548 0.247803 0.169788 237 209 145
0.191287 0.247694 0.167002 236 209 144
0.255951 0.250513 0.14638 254 250 243
0.086756 0.236154 0.146704 233 204 140
0.124757 0.2385 0.141939 201 170 113
0.124712 0.237269 0.141534 201 170 113
0.190559 0.244227 0.168259 237 209 148
0.25499 0.246945 0.146634 254 251 242
0.25543 0.246672 0.143018 254 251 244
0.1317 0.234004 0.125208 186 155 93
0.191339 0.241742 0.165977 236 206 148
0.192448 0.241791 0.165601 235 205 146
0.103219 0.232654 0.147659 231 200 136
0.11089 0.233711 0.153514 228 197 134
0.130978 0.232905 0.126973 176 147 88
0.109234 0.23224 0.151653 228 198 133
0.127262 0.23223 0.136234 194 162 103
0.111276 0.231449 0.154539 228 197 133
0.125197 0.231404 0.142273 202 171 111
0.132844 0.230401 0.12417 201 161 88
0.254344 0.240637 0.142112 254 251 244
0.129761 0.221847 0.124912 188 141 68
0.081021 0.217235 0.140521 185 167 120
0.127194 0.21961 0.128843 186 154 90
0.201493 0.227403 0.155038 207 181 132
0.252572 0.229958 0.142511 255 252 245
0.126252 0.218421 0.12973 193 159 97
0.25128 0.228621 0.141749 254 252 244
0.120006 0.216782 0.143121 218 187 123
0.122825 0.216689 0.139814 207 177 111
0.201852 0.223489 0.15059 207 184 129
0.122779 0.215455 0.139409 208 176 111
0.124567 0.215352 0.136829 202 168 107
0.081267 0.211238 0.140341 184 166 119
0.109463 0.211306 0.144072 228 197 134
0.124148 0.211518 0.134505 199 168 107
0.187236 0.219902 0.174329 239 214 149
0.250341 0.221972 0.146958 252 240 217
0.12287 0.210628 0.138844 208 176 114
0.247839 0.221066 0.151769 231 216 184
0.249109 0.220664 0.146492 239 203 159
0.121872 0.208205 0.139265 213 180 116
0.186705 0.212472 0.170595 240 212 151
0.099051 0.20223 0.144918 233 204 137
0.125308 0.2009 0.122769 185 152 90
0.185005 0.210232 0.173031 241 214 152
0.084076 0.198576 0.143732 211 183 130
0.113588 0.200832 0.143751 228 197 133
0.185224 0.20914 0.173709 240 215 151
0.125348 0.198467 0.122457 181 149 91
0.250657 0.209554 0.139946 253 252 245
0.124118 0.197149 0.122229 189 156 95
0.192171 0.205164 0.151686 226 194 139
0.194073 0.205094 0.14951 217 185 131
0.250685 0.208362 0.139802 253 252 245
0.130534 0.196038 0.118154 184 144 77
0.192233 0.203988 0.151702 226 194 138
0.24849 0.207083 0.140441 253 250 237
0.190805 0.202394 0.160536 234 204 140
0.192432 0.200983 0.156966 228 197 139
0.248596 0.203519 0.140094 253 252 244
0.248987 0.203165 0.136263 252 252 245
0.084144 0.187165 0.137494 211 185 131
0.099284 0.187708 0.143137 235 206 140
0.084292 0.183559 0.137388 213 185 132
0.110121 0.183588 0.141402 228 195 130
0.124152 0.18244 0.119552 178 152 96
0.126052 0.181129 0.117094 201 169 109
0.124081 0.17995 0.118806 187 160 99
0.168394 0.18864 0.169612 232 200 135
0.084699 0.176396 0.137575 200 176 126
0.102177 0.178337 0.142989 234 203 139
0.114247 0.178224 0.132767 224 192 127
0.176377 0.185988 0.172108 240 214 146
0.174087 0.184655 0.172317 239 211 145
0.175286 0.184748 0.172314 239 213 146
0.247716 0.18425 0.13706 253 252 242
0.105487 0.17234 0.140441 231 200 133
0.122913 0.171273 0.117421 182 156 101
0.172013 0.18103 0.172931 236 205 136
0.190938 0.179661 0.146206 214 184 130
0.25004 0.18318 0.136446 253 253 245
0.17446 0.18004 0.17289 239 210 146
0.248509 0.181679 0.134563 253 253 245
0.251745 0.18236 0.138596 253 253 245
0.189687 0.178777 0.16097 231 199 139
0.250247 0.180875 0.136861 253 253 245
0.099158 0.168589 0.143722 237 208 142
0.100496 0.168741 0.144127 236 206 142
0.252081 0.180136 0.139634 253 253 245
0.188521 0.173873 0.160109 233 202 141
0.115288 0.160353 0.133332 219 183 120
0.188217 0.168872 0.157801 233 198 139
0.116569 0.159251 0.1333 215 181 117
0.115196 0.157853 0.132519 217 183 121
0.18487 0.16688 0.163499 240 212 152
0.12351 0.151303 0.111139 190 166 117
0.184818 0.159598 0.16177 240 214 153
0.176389 0.158283 0.166504 240 216 150
0.177332 0.158235 0.165424 241 218 151
0.184767 0.15836 0.161304 241 215 152
0.108093 0.146881 0.136253 230 197 129
0.184486 0.154568 0.15936 241 216 152
0.242586 0.157104 0.151191 222 215 196
0.114426 0.142019 0.131301 218 183 120
0.177722 0.150612 0.160526 242 216 152
0.110467 0.140897 0.134778 227 191 127
0.17791 0.149507 0.161066 242 217 151
0.113634 0.138461 0.132304 218 185 119
0.114765 0.137279 0.131687 217 181 118
0.180759 0.146325 0.162175 242 219 157
0.105116 0.132207 0.136253 236 206 140
0.111065 0.130151 0.135007 228 195 130
0.113991 0.127577 0.131603 217 184 120
0.182888 0.136655 0.159 243 218 155
0.186037 0.131182 0.150892 238 209 142
0.185529 0.129074 0.153357 241 213 145
0.123062 0.11568 0.107356 187 156 98
0.122992 0.11315 0.106604 185 155 97
0.124599 0.102269 0.1059 149 125 73
0.126185 0.098204 0.101645 138 100 62
0.127383 0.097037 0.101234 78 41 18
0.185154 0.108767 0.152557 243 218 157
0.25419 0.111319 0.127461 253 252 244
0.127053 0.090655 0.108298 140 119 80
0.126584 0.087283 0.110612 155 128 75
0.131384 0.084465 0.104615 129 125 114
0.13029 0.083199 0.104949 124 118 104
0.14347 0.084803 0.108214 147 122 73
0.130626 0.082161 0.106042 119 114 101
0.259918 0.095633 0.122268 253 252 243
0.100801 0.084038 0.147874 248 230 175
0.260828 0.09428 0.120542 253 252 244
0.09771 0.082839 0.149886 249 236 188
0.25989 0.093145 0.121532 254 250 237
0.260838 0.091821 0.119989 253 252 243
0.119001 0.077893 0.117784 165 132 89
0.261514 0.089874 0.122705 253 245 228
0.120842 0.074654 0.119436 70 71 67
0.192585 0.086011 0.163493 252 243 203
0.091442 0.073629 0.156776 250 239 194
0.182497 0.083324 0.175888 252 246 209
0.265778 0.08246 0.118225 252 253 245
0.09164 0.071289 0.157069 249 236 186
0.265454 0.081814 0.122261 254 252 240
0.101705 0.064765 0.138641 214 165 68
0.268526 0.073918 0.123466 252 239 220
0.271699 0.071414 0.120738 253 252 244
0.201366 0.072221 0.177083 252 246 208
0.270543 0.066044 0.125401 93 77 75
0.086384 0.052794 0.157069 115 128 134
0.243904 0.064042 0.151798 143 123 106
0.275875 0.061076 0.12086 254 251 238
0.221847 0.05963 0.174924 181 163 164
0.22313 0.058595 0.175078 176 174 172
0.072916 0.043799 0.177476 253 229 146
0.075113 0.04387 0.176563 251 225 143
0.054783 0.040351 0.174005 111 122 137
0.280256 0.052463 0.116563 254 252 244
0.281438 0.051316 0.116158 254 252 244
0.279959 0.05066 0.120526 224 196 171
0.282446 0.048768 0.114548 253 252 244
0.058558 0.036584 0.186136 143 171 193
0.085651 0.039962 0.191217 170 183 191
0.086605 0.039904 0.190266 169 181 191
0.053377 0.034055 0.180731 135 162 187
0.282965 0.044252 0.115934 253 252 242
0.285187 0.041826 0.114391 252 252 244
0.113577 0.036427 0.212061 249 246 228
0.257152 0.042832 0.17448 135 160 187
0.255549 0.042038 0.177807 134 159 184
0.074557 0.028116 0.205759 237 229 203
0.255928 0.041145 0.179323 134 159 182
0.258806 0.040001 0.170505 139 157 181
0.074854 0.027095 0.206604 229 222 203
0.080122 0.027152 0.20375 233 231 213
0.288009 0.031214 0.113684 253 251 242
0.289416 0.030514 0.108526 253 253 245
0.256426 0.037918 0.180827 201 176 118
0.129186 0.027297 0.218983 250 240 182
0.146677 0.02828 0.221818 254 212 121
0.146042 0.023749 0.223068 253 199 103
0.266855 0.024389 0.171013 135 157 182
0.25391 0.023273 0.192776 238 182 113
0.266725 0.020596 0.169486 131 154 181
0.243498 0.02211 0.198744 241 192 135
0.224632 0.020831 0.208864 242 204 178
0.266088 0.01853 0.17154 138 154 178
0.288713 0.011678 0.118035 250 245 226
0.268252 0.017347 0.17028 136 154 176
0.291239 0.010782 0.118389 253 251 241
0.266278 0.016255 0.171871 137 153 177
0.280386 0.010062 0.141318 166 125 91
0.282958 0.009448 0.136253 249 245 220
0.285467 0.00876 0.130806 253 250 238
0.173937 0.011592 0.217875 178 109 96
0.278324 0.00868 0.148273 232 213 174
0.281334 0.007253 0.145168 253 249 238
0.183908 0.99408 0.207196 78 34 1
0.16316 0.988141 0.206238 77 31 0
0.16467 0.987367 0.20368 123 42 3
0.168623 0.986949 0.20583 176 74 25
0.170448 0.986795 0.20663 193 87 32
0.180711 0.985612 0.212781 222 137 47
0.163708 0.986493 0.201694 174 75 22
0.253344 0.990076 0.180956 92 48 3
0.167299 0.984999 0.202953 236 166 61
0.254248 0.987547 0.18791 121 50 5
0.258557 0.987949 0.185693 93 47 2
0.161298 0.983019 0.207054 134 47 5
0.207527 0.979323 0.226253 250 199 97
0.258267 0.986364 0.187586 101 49 7
0.162018 0.982039 0.205602 185 103 33
0.25785 0.985326 0.186535 117 50 8
0.259381 0.985262 0.186882 102 48 9
0.252663 0.982077 0.1975 232 205 152
0.256848 0.984009 0.187014 187 97 45
0.259861 0.984391 0.184915 98 46 8
0.261484 0.984292 0.185448 94 47 10
0.228486 0.976003 0.224032 248 207 126
0.253834 0.980461 0.199586 246 203 156
0.256561 0.980943 0.196957 253 207 111
0.25784 0.982251 0.183144 140 63 20
0.255624 0.97744 0.202667 254 215 133
0.257476 0.978234 0.198319 250 229 155
0.257148 0.979828 0.18963 240 201 114
0.257659 0.980631 0.185259 202 119 61
0.262528 0.980332 0.186859 101 49 6
0.257996 0.975881 0.204461 253 238 164
0.263161 0.978417 0.190594 139 61 20
0.262603 0.979114 0.186785 109 48 7
0.112191 0.982498 0.16257 73 28 0
0.232992 0.969457 0.226375 253 240 168
0.256471 0.971642 0.214285 254 208 117
0.259728 0.974348 0.199431 254 191 127
0.260282 0.978073 0.178999 119 50 9
0.176128 0.969072 0.222104 251 197 85
0.259189 0.971414 0.208809 253 249 199
0.26171 0.976852 0.178915 117 51 14
0.263934 0.976537 0.180654 100 46 7
0.264919 0.976672 0.179911 94 46 3
0.235115 0.965887 0.232596 253 242 169
0.260845 0.97109 0.203869 254 205 131
0.234567 0.964428 0.233914 253 233 139
0.258902 0.967712 0.215753 254 212 123
0.261552 0.970617 0.199704 245 215 132
0.246186 0.963428 0.232709 252 243 193
0.180798 0.964113 0.22221 229 176 75
0.225436 0.961957 0.234126 252 151 74
0.25161 0.963178 0.227355 252 248 201
0.25294 0.963184 0.227326 252 247 198
0.259032 0.964354 0.220847 253 233 149
0.261951 0.967622 0.202722 251 198 110
0.110986 0.971977 0.171662 72 25 0
0.255141 0.962178 0.226159 253 235 169
0.256824 0.96348 0.218935 253 237 160
0.260101 0.964225 0.214802 255 214 135
0.109958 0.970621 0.172157 72 24 0
0.257829 0.962419 0.218045 251 235 156
0.266289 0.966115 0.197506 248 201 105
0.107036 0.969872 0.169271 72 24 0
0.109723 0.96947 0.171517 77 26 0
0.195104 0.958527 0.232773 154 96 24
0.199244 0.958065 0.235383 163 99 28
0.232651 0.957804 0.236906 247 182 66
0.240558 0.957872 0.236556 254 177 94
0.253957 0.959768 0.226031 252 251 216
0.25511 0.959835 0.225661 252 241 187
0.26981 0.967542 0.182723 123 53 16
0.10901 0.968014 0.172571 79 27 0
0.1087 0.968567 0.169467 89 37 5
0.201584 0.956557 0.23698 169 104 39
0.238157 0.956596 0.2369 248 166 64
0.252268 0.956381 0.238185 251 240 171
0.255546 0.958508 0.226291 252 238 184
0.260499 0.960542 0.214924 253 199 102
0.264636 0.963371 0.199136 246 213 129
0.251284 0.955082 0.238657 252 233 156
0.254167 0.956872 0.228621 252 251 216
0.265753 0.962268 0.198451 242 201 128
0.26886 0.966472 0.17492 98 43 2
0.106642 0.965855 0.170453 91 32 1
0.232901 0.953729 0.239307 235 145 55
0.254381 0.954697 0.234039 254 227 138
0.262145 0.958553 0.212424 254 167 86
0.262903 0.958759 0.211264 254 163 85
0.265564 0.959247 0.208548 251 209 111
0.267362 0.959565 0.206781 250 192 104
0.107084 0.963589 0.176113 69 23 0
0.20062 0.953321 0.234534 154 110 46
0.206159 0.952399 0.239779 156 103 35
0.229323 0.95148 0.245114 252 171 80
0.233417 0.95238 0.240075 237 138 60
0.252493 0.952785 0.237966 254 181 85
0.257882 0.954636 0.227574 242 160 77
0.270496 0.963987 0.175036 96 46 4
0.23441 0.951326 0.239178 232 138 59
0.252568 0.951586 0.237893 252 174 72
0.255273 0.952965 0.230119 248 184 90
0.272337 0.961661 0.181248 124 53 11
0.272462 0.962583 0.176049 93 46 8
0.254797 0.951493 0.231584 244 172 69
0.259469 0.952666 0.22499 216 129 50
0.26131 0.953427 0.220699 239 129 55
0.262885 0.954285 0.215872 255 173 77
0.263681 0.954478 0.214793 254 190 89
0.252717 0.949189 0.237748 247 171 67
0.253066 0.949986 0.23322 241 168 62
0.263027 0.953058 0.21593 254 189 81
0.264063 0.953167 0.215326 253 199 93
0.233098 0.947328 0.241167 219 129 61
0.254202 0.948883 0.2326 229 152 57
0.263574 0.951689 0.216788 250 194 81
0.181602 0.94952 0.221082 235 202 126
0.249639 0.947421 0.233946 240 168 63
0.252071 0.947514 0.233455 234 156 58
0.232752 0.945091 0.240075 213 125 40
0.232934 0.94548 0.237847 215 133 43
0.251046 0.946229 0.233853 234 160 59
0.258365 0.948334 0.221946 232 145 53
0.260919 0.949311 0.216409 239 163 65
0.262065 0.949385 0.21602 238 165 68
0.26803 0.950593 0.209223 239 145 60
0.273244 0.956345 0.176502 115 48 6
0.259088 0.946913 0.223142 239 144 60
0.27041 0.9514 0.197677 240 160 65
0.274395 0.955227 0.175872 101 45 9
0.090638 0.957036 0.15532 71 22 0
0.233145 0.942607 0.24039 216 129 47
0.249889 0.943359 0.236376 229 159 60
0.253707 0.941816 0.238358 224 152 53
0.265808 0.945959 0.214796 251 143 65
0.257746 0.942465 0.227734 251 196 88
0.264414 0.944792 0.214471 254 160 70
0.270824 0.945846 0.208555 236 156 60
0.270201 0.944876 0.207093 230 150 60
0.272994 0.945779 0.201951 217 130 44
0.260504 0.9401 0.227445 249 180 89
0.261161 0.940332 0.226108 252 179 87
0.265886 0.942854 0.21163 253 171 82
0.270089 0.944194 0.203972 222 137 55
0.273251 0.944975 0.199557 218 127 45
0.248008 0.937658 0.234245 254 172 78
0.272725 0.944898 0.192888 209 128 47
0.24871 0.9367 0.232783 253 199 93
0.253302 0.936533 0.233879 249 162 65
0.258432 0.936636 0.233432 231 139 60
0.260772 0.938111 0.224906 239 155 68
0.2533 0.935807 0.231051 247 162 63
0.269979 0.939313 0.2111 229 129 56
0.272488 0.941222 0.200048 229 144 53
0.215482 0.932397 0.235736 200 117 40
0.267223 0.935601 0.218475 238 147 65
0.253434 0.931349 0.235868 219 141 66
0.271503 0.938002 0.19741 229 143 56
0.236662 0.928984 0.242144 229 145 53
0.269757 0.933763 0.215095 228 134 54
0.27239 0.936064 0.201646 229 140 57
0.23564 0.928132 0.239975 230 157 55
0.246975 0.928884 0.235913 209 154 66
0.266696 0.930006 0.229964 228 141 50
0.263701 0.929367 0.226491 229 147 54
0.272228 0.931944 0.211579 205 121 44
0.272856 0.934001 0.199447 221 139 52
0.276259 0.937446 0.179217 167 79 27
0.276795 0.937729 0.177572 117 50 9
0.191091 0.927159 0.229858 187 152 90
0.27016 0.930096 0.215233 208 124 46
0.27228 0.930745 0.21146 194 107 35
0.27234 0.932988 0.198191 216 132 52
0.243626 0.924247 0.241742 192 121 41
0.273489 0.931423 0.200267 210 126 45
0.275469 0.934872 0.179895 214 155 46
0.276789 0.93581 0.174374 95 47 8
0.183776 0.925304 0.226053 166 128 76
0.239123 0.92363 0.238044 204 118 40
0.244106 0.923357 0.239866 200 125 45
0.255306 0.925022 0.230376 246 169 69
0.27193 0.928505 0.210319 200 112 34
0.272513 0.928762 0.208812 201 108 33
0.276749 0.934634 0.174069 96 47 6
0.250707 0.924003 0.229042 247 200 95
0.276017 0.933223 0.175094 105 48 12
0.254141 0.923042 0.22767 228 153 69
0.271477 0.925401 0.214304 214 131 43
0.204386 0.920146 0.235714 176 133 74
0.240957 0.91996 0.238326 228 144 52
0.25298 0.921798 0.227805 215 143 68
0.26384 0.922711 0.222811 219 135 50
0.265856 0.922942 0.221506 213 123 47
0.266961 0.923469 0.218402 208 118 47
0.273612 0.926654 0.199624 200 114 40
0.25734 0.920111 0.230855 206 140 59
0.261804 0.920436 0.22911 215 141 55
0.263043 0.920478 0.228917 218 143 58
0.264089 0.921017 0.225716 220 141 50
0.273858 0.925838 0.197204 198 115 36
0.253608 0.918816 0.231199 213 148 68
0.264879 0.919591 0.22705 214 132 53
0.266005 0.920542 0.221361 216 134 44
0.187463 0.918312 0.223945 162 116 59
0.197638 0.917785 0.22757 173 124 69
0.248671 0.917032 0.234419 218 165 71
0.250749 0.916814 0.235842 217 158 70
0.25262 0.916656 0.236871 216 150 71
0.265183 0.918755 0.224797 211 130 53
0.186031 0.917126 0.223621 161 113 55
0.266131 0.919025 0.215879 214 138 56
0.268293 0.920092 0.209535 201 128 53
0.270302 0.92033 0.208198 194 125 44
0.197506 0.915448 0.226889 173 123 63
0.18726 0.914796 0.22292 164 115 54
0.266312 0.917482 0.210486 195 135 57
0.255264 0.912852 0.23072 192 127 52
0.256572 0.912128 0.227824 193 118 36
0.267638 0.913838 0.217978 189 116 43
0.182261 0.910615 0.225732 155 104 46
0.250139 0.909532 0.235951 186 110 38
0.244611 0.907517 0.240595 198 137 48
0.263163 0.9103 0.224549 199 124 24
0.185082 0.907825 0.227969 157 105 40
0.2621 0.909024 0.224874 208 147 33
0.269819 0.912218 0.205682 190 119 44
0.201178 0.906054 0.232221 176 124 47
0.25871 0.908468 0.220632 217 156 48
0.261915 0.907906 0.224292 215 155 39
0.243675 0.904277 0.238146 190 125 45
0.259361 0.907517 0.219057 214 159 47
0.259614 0.907864 0.216917 212 157 41
0.221617 0.903451 0.234435 171 98 20
0.261309 0.906164 0.220028 208 155 47
0.242187 0.902374 0.234849 190 115 41
0.254217 0.904191 0.224315 202 126 56
0.199775 0.901716 0.228737 191 112 60
0.258487 0.9034 0.221946 201 137 61
0.20049 0.899917 0.2324 216 129 67
0.200136 0.900425 0.229193 210 126 67
0.227525 0.899409 0.237298 186 106 19
0.24266 0.900295 0.232735 191 116 34
0.258454 0.902234 0.221664 198 120 53
0.266519 0.905286 0.20313 188 118 50
0.227299 0.898297 0.236649 190 111 20
0.257474 0.900933 0.222152 205 121 51
0.263839 0.902374 0.213562 198 122 46
0.190497 0.893581 0.25632 246 159 76
0.202267 0.895832 0.242883 244 158 71
0.222014 0.89784 0.231539 186 113 22
0.232616 0.896792 0.23885 199 117 29
0.238565 0.897504 0.234775 197 124 42
0.250294 0.898571 0.228869 203 147 67
0.270032 0.903127 0.201658 192 118 46
0.202909 0.894469 0.243864 244 162 76
0.231625 0.895497 0.239316 199 118 29
0.257488 0.898991 0.219112 217 146 67
0.260661 0.899712 0.214793 215 141 61
0.202123 0.891918 0.25227 246 169 75
0.203391 0.893151 0.244545 242 164 78
0.214415 0.894426 0.237231 254 199 88
0.22584 0.895184 0.233229 191 119 23
0.268155 0.900483 0.202825 206 130 48
0.201394 0.890549 0.253219 250 167 80
0.20263 0.89139 0.247961 244 157 86
0.233608 0.894601 0.229788 200 125 32
0.240489 0.895047 0.227461 216 151 64
0.06914 0.906694 0.133605 64 25 0
0.225446 0.892533 0.234615 179 111 25
0.194951 0.887238 0.258434 238 151 72
0.195129 0.887972 0.253765 248 175 75
0.221432 0.891696 0.231918 171 95 20
0.225567 0.891722 0.232056 180 108 23
0.230987 0.891782 0.232085 199 137 45
0.23843 0.892472 0.228251 212 143 49
0.2522 0.893772 0.221027 221 161 73
0.259844 0.89607 0.207003 214 163 75
0.19421 0.885876 0.259354 225 144 68
0.224759 0.890773 0.230305 174 103 24
0.233409 0.890714 0.231337 196 131 44
0.261495 0.895648 0.202063 222 171 83
0.196343 0.88567 0.253071 243 172 69
0.231635 0.889238 0.232889 196 121 38
0.235774 0.889664 0.230482 195 124 31
0.239569 0.889785 0.230006 211 139 50
0.25956 0.893789 0.205997 202 138 66
0.14989 0.884301 0.250648 97 73 35
0.149183 0.88487 0.246923 122 82 36
0.201089 0.883965 0.256599 246 169 77
0.222601 0.887821 0.23348 166 71 2
0.23564 0.888523 0.230006 192 126 32
0.239974 0.88849 0.230565 210 137 48
0.248103 0.889793 0.222866 210 146 71
0.256142 0.891957 0.209648 218 163 67
0.148552 0.884229 0.243115 173 111 40
0.163958 0.883578 0.248462 237 173 80
0.205719 0.881518 0.264939 243 172 76
0.20787 0.882868 0.256403 244 164 82
0.209209 0.882888 0.256378 247 166 82
0.208867 0.883373 0.253225 251 169 89
0.214053 0.884679 0.24522 243 161 73
0.224919 0.887183 0.229958 152 80 19
0.232573 0.887014 0.231664 189 118 33
0.236687 0.887447 0.229212 197 124 26
0.238163 0.887428 0.229457 204 126 37
0.247059 0.88851 0.223232 210 143 63
0.254139 0.890538 0.210782 209 164 78
0.149338 0.882448 0.246775 158 107 37
0.194158 0.880797 0.260899 208 113 47
0.205739 0.880341 0.264762 240 170 75
0.214409 0.883402 0.24567 243 157 71
0.221738 0.884908 0.23654 225 129 53
0.228721 0.886126 0.229254 165 112 28
0.243009 0.887685 0.220381 218 154 69
0.187401 0.879527 0.260761 239 151 75
0.19052 0.879453 0.261491 234 155 76
0.221308 0.883454 0.238069 234 152 62
0.235184 0.885516 0.225889 188 123 28
0.264288 0.890147 0.198483 193 121 48
0.212971 0.879496 0.255192 244 176 87
0.215844 0.879483 0.255513 244 167 77
0.229854 0.883844 0.228399 130 72 0
0.230475 0.884067 0.227005 134 74 1
0.235651 0.885004 0.221374 200 136 46
0.243036 0.885315 0.219996 220 157 72
0.195382 0.87694 0.262506 224 150 65
0.231471 0.883004 0.226105 119 55 0
0.2343 0.883404 0.223756 166 104 14
0.213994 0.876098 0.261696 230 134 68
0.215047 0.878128 0.248539 239 146 60
0.232716 0.881871 0.225684 112 49 0
0.233747 0.881979 0.22507 128 66 0
0.250671 0.883999 0.213436 185 172 115
0.253869 0.884297 0.211791 173 139 93
0.259398 0.886371 0.198801 202 130 58
0.261163 0.886679 0.196957 195 119 49
0.213848 0.874583 0.263721 232 153 64
0.22204 0.877365 0.246238 248 177 73
0.249173 0.882841 0.212922 186 167 113
0.253921 0.883504 0.20903 184 121 69
0.259152 0.884847 0.200758 211 150 68
0.156349 0.873117 0.260459 161 101 42
0.198726 0.872902 0.265517 227 150 71
0.221333 0.875995 0.247231 245 173 77
0.247597 0.880901 0.217511 207 146 69
0.261345 0.884664 0.194199 190 127 49
0.190755 0.871576 0.265607 233 147 73
0.196687 0.871515 0.266536 208 126 60
0.221737 0.874324 0.250317 232 151 72
0.234474 0.877839 0.228399 168 71 10
0.235958 0.878215 0.226069 125 43 0
0.249441 0.8804 0.213006 201 152 99
0.191889 0.870478 0.264987 229 140 71
0.207337 0.871293 0.261015 251 181 86
0.208394 0.87139 0.260472 251 179 87
0.213681 0.871876 0.25775 217 137 63
0.217345 0.871654 0.259553 199 131 57
0.223701 0.873001 0.251262 221 132 59
0.22469 0.873118 0.250587 221 140 58
0.237728 0.877332 0.224064 174 98 29
0.24791 0.878849 0.215059 207 155 68
0.248812 0.879395 0.21156 208 152 80
0.25251 0.880355 0.205598 199 129 54
0.211087 0.870257 0.260244 244 158 83
0.211921 0.870414 0.259283 236 148 76
0.233601 0.875328 0.228878 223 150 57
0.238706 0.876274 0.223129 197 139 58
0.240285 0.876624 0.220969 218 171 78
0.242003 0.876937 0.219076 217 168 79
0.260317 0.880179 0.199512 198 122 48
0.217509 0.868887 0.261947 193 99 40
0.221856 0.870004 0.25496 231 142 51
0.244781 0.876169 0.2164 205 131 60
0.259652 0.877996 0.197751 200 130 55
0.22312 0.867701 0.254379 243 159 58
0.227267 0.868494 0.24951 223 132 68
0.232304 0.869435 0.243754 239 146 68
0.244808 0.873797 0.216011 207 143 61
0.245998 0.873862 0.215702 207 136 62
0.214247 0.86436 0.267764 242 153 80
0.218856 0.865395 0.261307 211 114 55
0.219489 0.865604 0.259977 209 120 61
0.235344 0.871299 0.223579 184 96 21
0.236326 0.87142 0.222872 177 95 24
0.237178 0.872359 0.216702 187 137 62
0.237341 0.873491 0.209169 206 157 67
0.240177 0.873104 0.212045 210 154 65
0.25229 0.875289 0.198753 209 137 61
0.212613 0.863245 0.267018 229 151 70
0.218955 0.864198 0.261279 221 132 68
0.236286 0.871418 0.21476 181 124 48
0.237417 0.872284 0.209095 203 159 65
0.245271 0.871697 0.213851 208 149 65
0.247003 0.871613 0.214597 208 143 62
0.219711 0.863203 0.259964 232 153 78
0.224442 0.864211 0.253691 254 168 74
0.236409 0.865574 0.245805 231 145 59
0.240951 0.870914 0.210483 208 155 67
0.244797 0.870644 0.21271 207 148 65
0.246931 0.870842 0.211611 211 133 64
0.247471 0.871874 0.204756 221 152 73
0.250209 0.872303 0.202182 221 141 75
0.204965 0.860296 0.269901 203 118 45
0.217174 0.860832 0.267565 220 153 78
0.224758 0.862579 0.256603 251 174 74
0.231292 0.864246 0.246081 247 163 76
0.237587 0.869085 0.214224 178 121 38
0.23895 0.869493 0.211627 198 151 69
0.200189 0.858514 0.273314 242 162 71
0.208706 0.859267 0.269126 195 113 39
0.221272 0.860453 0.262458 241 170 78
0.236191 0.867503 0.216531 165 86 12
0.247789 0.869807 0.202291 225 159 74
0.248172 0.870095 0.200395 225 153 74
0.251945 0.87024 0.199843 221 164 79
0.217101 0.858144 0.269505 189 107 37
0.219446 0.859016 0.263856 219 144 59
0.237022 0.86303 0.238628 213 123 45
0.202778 0.855517 0.277636 236 155 75
0.217814 0.85716 0.26812 177 98 31
0.228323 0.858508 0.260141 248 154 63
0.232522 0.860024 0.25032 244 164 64
0.245449 0.86651 0.207838 216 148 71
0.198518 0.854338 0.277035 238 166 78
0.202797 0.854344 0.277463 229 156 75
0.22534 0.85663 0.264405 230 140 60
0.229983 0.858022 0.255465 247 161 67
0.23021 0.85871 0.250815 243 152 60
0.240667 0.865451 0.206203 213 155 72
0.196358 0.85335 0.275348 233 158 69
0.209777 0.853951 0.272745 179 90 25
0.21651 0.855158 0.265267 160 88 25
0.22364 0.855164 0.266038 211 118 41
0.224693 0.855261 0.265495 217 125 44
0.227026 0.855765 0.26232 227 137 47
0.233783 0.857724 0.249735 222 137 51
0.235293 0.858078 0.247501 209 118 40
0.236366 0.858547 0.244429 210 119 38
0.238038 0.863426 0.211383 170 96 27
0.247208 0.865996 0.194961 221 159 75
0.210369 0.852633 0.273625 181 87 28
0.223942 0.854286 0.263875 210 124 38
0.224995 0.854383 0.263332 212 129 39
0.227101 0.854577 0.262249 222 137 39
0.199586 0.850564 0.278356 211 128 54
0.214047 0.852714 0.265267 172 96 18
0.220751 0.8532 0.262718 194 115 29
0.222362 0.853521 0.2607 202 120 34
0.242859 0.86246 0.201906 216 153 74
0.242759 0.863647 0.193766 213 150 70
0.206191 0.850263 0.272947 192 120 45
0.208932 0.850658 0.27055 186 106 39
0.212967 0.85109 0.268047 200 116 32
0.213505 0.851318 0.266549 193 110 25
0.232515 0.852687 0.259392 205 117 30
0.246271 0.863456 0.187126 222 159 76
0.22394 0.850415 0.265746 179 102 17
0.226547 0.850846 0.263088 199 113 31
0.22705 0.851084 0.261513 198 119 30
0.228937 0.851334 0.260016 198 118 24
0.241179 0.860915 0.195536 210 154 72
0.213157 0.848704 0.267976 204 130 41
0.218786 0.84946 0.263432 152 68 4
0.221071 0.849609 0.262677 171 86 22
0.225067 0.849326 0.265132 187 99 23
0.232623 0.850689 0.256635 180 110 21
0.21351 0.847446 0.268419 203 125 39
0.219915 0.848369 0.262815 170 76 14
0.23582 0.85017 0.252316 186 104 22
0.235194 0.851437 0.243462 210 129 37
0.245122 0.85941 0.189533 214 169 77
0.210725 0.845536 0.273012 172 93 21
0.220128 0.847145 0.263001 186 89 21
0.231008 0.84803 0.258222 167 95 24
0.191819 0.843325 0.27771 125 53 0
0.233354 0.84736 0.254835 183 93 33
0.185762 0.842211 0.276341 124 55 0
0.213978 0.843467 0.271144 170 91 23
0.220318 0.844759 0.26293 209 120 33
0.229235 0.845413 0.259508 171 101 23
0.240427 0.849527 0.232243 206 138 39
0.239834 0.855311 0.191802 202 157 69
0.21557 0.842975 0.266398 178 95 25
0.216305 0.843151 0.265263 187 105 31
0.230423 0.845031 0.253938 209 118 42
0.235807 0.845855 0.24888 227 142 53
0.239672 0.854161 0.191262 199 159 68
0.240443 0.8457 0.242151 221 141 49
0.243245 0.847192 0.23206 189 106 35
0.243296 0.847548 0.229566 189 108 44
0.239146 0.852349 0.195315 196 144 70
0.225179 0.841121 0.263849 200 129 27
0.22592 0.841652 0.260202 193 122 26
0.239288 0.851875 0.190067 191 147 60
0.225006 0.839995 0.263313 194 124 24
0.241377 0.844945 0.230614 192 124 43
0.190994 0.836845 0.272485 157 97 27
0.21073 0.837709 0.269052 170 101 32
0.219545 0.838743 0.26293 190 111 32
0.184712 0.83577 0.270717 162 109 28
0.185769 0.835867 0.270171 154 98 22
0.187254 0.835863 0.270402 150 90 23
0.210656 0.836557 0.268705 172 105 37
0.228772 0.838511 0.257355 206 131 37
0.232782 0.839309 0.252251 203 126 42
0.188591 0.835066 0.267687 138 84 15
0.205614 0.834849 0.271617 154 89 25
0.227235 0.837007 0.259299 183 106 25
0.230173 0.837709 0.254716 199 133 40
0.232473 0.838214 0.251451 189 110 33
0.236179 0.83945 0.243182 170 96 26
0.235887 0.846102 0.195793 204 161 73
0.236426 0.847455 0.186242 188 133 49
0.218564 0.835118 0.262972 166 96 21
0.224535 0.835434 0.261577 164 94 27
0.225643 0.835518 0.261137 167 95 23
0.231279 0.836623 0.254057 190 113 34
0.236665 0.838156 0.243892 174 103 34
0.238132 0.838152 0.244134 172 96 31
0.235963 0.844891 0.195719 204 167 73
0.222835 0.833972 0.26321 163 102 23
0.22494 0.834167 0.262124 164 92 24
0.227879 0.834511 0.260083 177 101 32
0.240491 0.836756 0.245866 165 93 26
0.242026 0.838895 0.230778 173 99 28
0.234315 0.834959 0.249208 178 105 43
0.225923 0.831942 0.261025 171 103 23
0.226881 0.832062 0.260305 172 106 30
0.229458 0.833198 0.252508 176 104 38
0.224841 0.831032 0.258778 173 109 28
0.221704 0.829912 0.257718 178 114 30
0.24134 0.840532 0.18388 184 131 53
0.23612 0.839163 0.184089 202 161 76
0.240916 0.84018 0.177476 180 122 40
0.23386 0.838158 0.182113 204 163 77
0.236196 0.837948 0.184015 203 163 74
0.147072 0.824732 0.25757 248 233 173
0.151902 0.824665 0.258804 248 231 170
0.224044 0.826883 0.253897 163 97 30
0.231757 0.828886 0.240496 171 102 39
0.238894 0.829638 0.236154 171 109 38
0.233796 0.836976 0.181766 202 163 78
0.235098 0.837021 0.181647 202 162 78
0.22228 0.82509 0.257946 160 90 30
0.227689 0.826584 0.247874 166 100 32
0.23467 0.835929 0.180589 201 161 80
0.223409 0.823999 0.257329 170 98 24
0.228132 0.825652 0.245953 158 92 29
0.231356 0.826629 0.2393 168 110 44
0.234426 0.8266 0.240026 179 117 48
0.235318 0.827087 0.236594 178 120 48
0.225331 0.824097 0.248073 164 103 37
0.234637 0.826072 0.235074 177 114 41
0.239114 0.826759 0.230765 158 86 7
0.149846 0.82037 0.254308 247 232 174
0.220396 0.82133 0.258814 178 97 26
0.223289 0.822026 0.254151 182 122 22
0.227969 0.822996 0.247762 162 97 25
0.215615 0.81956 0.262233 190 104 27
0.218154 0.819995 0.259437 189 116 26
0.220286 0.820184 0.258396 189 116 36
0.215551 0.818404 0.261902 192 109 28
