ply
format ascii 1.0
comment PCL generated
element vertex 1254
property float x
property float y
property float z
property uchar red
property uchar green
property uchar blue
element camera 0
property float view_px
property float view_py
property float view_pz
property float x_axisx
property float x_axisy
property float x_axisz
property float y_axisx
property float y_axisy
property float y_axisz
property float z_axisx
property float z_axisy
property float z_axisz
property float focal
property float scalex
property float scaley
property float centerx
property float centery
property int viewportx
property int viewporty
property float k1
property float k2
end_header
0.09452 0.049729 0.026684 137 142 142
0.09452 0.054439 0.026684 133 137 136
0.09923 0.054439 0.026684 133 136 135
0.09923 0.059149 0.021974 144 148 147
0.09923 0.063859 0.021974 146 149 147
0.09452 0.059149 0.026684 131 134 133
0.09452 0.063859 0.026684 137 143 143
0.09923 0.059149 0.026684 135 139 139
0.09923 0.063859 0.026684 143 146 146
0.10394 0.049729 0.017264 144 147 145
0.10394 0.049729 0.021974 147 151 148
0.10394 0.054439 0.021974 147 149 147
0.10865 0.049729 0.017264 148 152 149
0.10865 0.054439 0.017264 143 149 147
0.10865 0.054439 0.021974 144 149 147
0.10394 0.059149 0.021974 146 150 148
0.10394 0.063859 0.021974 145 151 148
0.10865 0.059149 0.021974 140 146 146
0.10865 0.063859 0.021974 137 144 145
0.09452 0.068569 0.026684 143 147 147
0.09452 0.068569 0.031394 146 150 148
0.09452 0.073279 0.026684 146 150 149
0.09452 0.073279 0.031394 151 155 153
0.09923 0.068569 0.026684 149 153 151
0.09923 0.073279 0.026684 149 152 150
0.09923 0.073279 0.031394 153 156 153
0.09452 0.077989 0.031394 149 152 150
0.09452 0.082699 0.031394 152 156 152
0.09923 0.077989 0.026684 153 156 151
0.09923 0.077989 0.031394 153 157 154
0.09923 0.082699 0.031394 149 154 151
0.10394 0.068569 0.021974 139 147 147
0.10865 0.068569 0.021974 142 148 147
0.10394 0.068569 0.026684 145 150 149
0.10394 0.073279 0.026684 151 155 152
0.10865 0.068569 0.026684 141 147 148
0.10865 0.073279 0.026684 141 149 150
0.10394 0.077989 0.026684 148 156 153
0.10394 0.077989 0.031394 137 146 147
0.10394 0.082699 0.031394 145 150 149
0.10865 0.077989 0.026684 135 147 149
0.10865 0.077989 0.031394 128 139 144
0.10865 0.082699 0.031394 145 151 150
0.09452 0.077989 0.036104 143 146 145
0.09452 0.082699 0.036104 148 151 149
0.09923 0.082699 0.036104 149 154 151
0.11336 0.049729 0.017264 130 141 143
0.11336 0.054439 0.017264 136 145 145
0.11336 0.054439 0.021974 142 149 147
0.11807 0.049729 0.017264 131 140 140
0.11807 0.054439 0.017264 141 147 146
0.11336 0.059149 0.017264 146 150 145
0.11336 0.059149 0.021974 154 156 151
0.11336 0.063859 0.021974 153 155 151
0.11807 0.059149 0.017264 150 154 150
0.11807 0.059149 0.021974 154 158 152
0.11807 0.063859 0.021974 151 155 151
0.12278 0.049729 0.017264 120 127 124
0.12278 0.054439 0.017264 126 133 130
0.12749 0.049729 0.017264 144 153 152
0.12749 0.054439 0.017264 141 148 148
0.12278 0.059149 0.017264 144 149 147
0.12278 0.063859 0.017264 157 161 157
0.12278 0.063859 0.021974 161 164 160
0.12749 0.059149 0.017264 157 160 156
0.12749 0.063859 0.017264 155 157 154
0.12749 0.063859 0.021974 152 156 153
0.11336 0.068569 0.021974 154 156 152
0.11336 0.073279 0.021974 161 163 156
0.11807 0.068569 0.021974 155 158 154
0.11807 0.073279 0.021974 158 162 158
0.11336 0.068569 0.026684 147 149 147
0.11336 0.073279 0.026684 154 157 152
0.11807 0.073279 0.026684 161 164 159
0.11336 0.077989 0.026684 151 155 152
0.11336 0.082699 0.026684 155 160 156
0.11336 0.082699 0.031394 134 139 140
0.11807 0.077989 0.026684 153 158 155
0.11807 0.082699 0.026684 150 154 154
0.11807 0.082699 0.031394 153 155 153
0.12278 0.068569 0.021974 160 163 158
0.12278 0.073279 0.021974 151 155 152
0.12749 0.068569 0.021974 151 153 150
0.12749 0.073279 0.021974 153 156 150
0.12278 0.073279 0.026684 150 154 152
0.12278 0.077989 0.021974 147 150 148
0.12278 0.082699 0.021974 148 151 148
0.12749 0.077989 0.021974 154 157 152
0.12749 0.082699 0.021974 153 157 153
0.12278 0.077989 0.026684 148 152 150
0.12278 0.082699 0.026684 148 151 150
0.12749 0.077989 0.026684 151 155 154
0.12749 0.082699 0.026684 151 156 153
0.13691 0.026179 0.012554 109 142 149
0.14162 0.026179 0.012554 103 129 137
0.14633 0.026179 0.007844 143 160 168
0.1322 0.030889 0.003134 213 215 205
0.13691 0.030889 0.003134 226 227 216
0.1322 0.030889 0.007844 105 111 119
0.1322 0.030889 0.012554 96 108 114
0.1322 0.035599 0.007844 119 127 127
0.1322 0.035599 0.012554 115 122 119
0.13691 0.030889 0.007844 125 124 126
0.13691 0.030889 0.012554 112 120 122
0.13691 0.035599 0.007844 140 144 142
0.13691 0.035599 0.012554 139 144 141
0.1322 0.040309 0.007844 124 131 133
0.1322 0.040309 0.012554 124 132 133
0.1322 0.045019 0.012554 133 143 143
0.13691 0.040309 0.007844 138 145 143
0.13691 0.040309 0.012554 144 149 146
0.13691 0.045019 0.012554 160 162 156
0.14162 0.030889 -0.001576 231 232 221
0.14162 0.030889 0.003134 225 226 218
0.14633 0.030889 -0.001576 236 235 224
0.14633 0.030889 0.003134 217 223 216
0.14162 0.030889 0.007844 137 132 132
0.14162 0.030889 0.012554 136 140 137
0.14162 0.035599 0.007844 157 158 150
0.14162 0.035599 0.012554 153 154 150
0.14633 0.030889 0.007844 138 135 133
0.14633 0.035599 0.007844 156 157 148
0.14633 0.035599 0.012554 152 155 151
0.14162 0.040309 0.012554 153 156 151
0.14162 0.045019 0.012554 152 154 150
0.14633 0.040309 0.012554 149 151 148
0.14633 0.045019 0.007844 153 153 148
0.14633 0.045019 0.012554 159 160 153
0.15104 0.026179 0.007844 147 167 171
0.15575 0.026179 0.007844 145 175 176
0.16046 0.026179 0.007844 220 223 220
0.16517 0.026179 0.007844 219 221 218
0.16517 0.026179 0.012554 181 188 193
0.15104 0.030889 0.007844 145 140 134
0.15104 0.035599 0.007844 157 158 151
0.15575 0.030889 0.007844 155 155 148
0.15575 0.035599 0.007844 166 164 149
0.15104 0.040309 0.007844 157 158 152
0.15104 0.040309 0.012554 160 161 154
0.15104 0.045019 0.012554 163 165 159
0.15575 0.040309 0.007844 157 159 153
0.15575 0.040309 0.012554 163 165 158
0.15575 0.045019 0.012554 165 167 161
0.16046 0.030889 0.007844 171 167 157
0.16046 0.030889 0.012554 169 162 145
0.16046 0.035599 0.007844 166 165 153
0.16046 0.035599 0.012554 168 168 158
0.16517 0.030889 0.007844 170 161 144
0.16517 0.030889 0.012554 175 171 158
0.16517 0.035599 0.007844 173 170 154
0.16517 0.035599 0.012554 161 162 155
0.16046 0.040309 0.012554 167 168 160
0.16046 0.045019 0.012554 164 165 158
0.16517 0.040309 0.012554 161 162 157
0.16517 0.045019 0.012554 159 161 156
0.1322 0.049729 0.012554 148 154 151
0.1322 0.054439 0.012554 151 155 152
0.13691 0.049729 0.012554 156 158 153
0.13691 0.054439 0.012554 152 154 150
0.13691 0.059149 0.012554 168 167 158
0.14162 0.049729 0.012554 160 160 151
0.14162 0.054439 0.012554 170 170 160
0.14633 0.049729 0.012554 169 170 161
0.14633 0.054439 0.012554 165 168 162
0.14162 0.059149 0.012554 177 177 165
0.15104 0.049729 0.012554 164 166 161
0.15104 0.054439 0.012554 163 164 159
0.15575 0.049729 0.012554 164 166 160
0.15575 0.054439 0.012554 166 168 162
0.16046 0.049729 0.012554 161 163 158
0.16517 0.049729 0.012554 162 164 157
0.16988 0.026179 0.007844 230 231 227
0.17459 0.026179 0.007844 247 245 238
0.17459 0.026179 0.012554 179 182 186
0.1793 0.026179 0.012554 173 183 190
0.16988 0.030889 0.007844 249 246 239
0.16988 0.030889 0.012554 164 157 145
0.16988 0.035599 0.012554 160 161 153
0.17459 0.030889 0.012554 169 162 144
0.17459 0.035599 0.012554 166 165 152
0.16988 0.040309 0.012554 162 162 156
0.16988 0.045019 0.012554 165 166 158
0.17459 0.040309 0.012554 179 175 157
0.1793 0.030889 0.012554 153 143 128
0.1793 0.035599 0.012554 177 171 145
0.18401 0.030889 0.012554 144 125 113
0.1793 0.040309 0.012554 210 202 178
0.1793 0.045019 0.012554 229 220 203
0.16988 0.049729 0.012554 158 159 153
0.16988 0.054439 0.012554 156 156 150
0.1322 0.049729 0.017264 150 156 153
0.1322 0.054439 0.017264 153 156 152
0.13691 0.054439 0.017264 152 153 151
0.1322 0.059149 0.017264 153 155 152
0.1322 0.063859 0.017264 150 152 149
0.13691 0.059149 0.017264 162 163 156
0.13691 0.063859 0.017264 164 166 161
0.14162 0.054439 0.017264 171 173 167
0.14633 0.054439 0.017264 157 159 156
0.14162 0.059149 0.017264 165 168 162
0.14162 0.063859 0.017264 152 156 154
0.14633 0.059149 0.017264 156 159 154
0.14633 0.063859 0.017264 160 163 157
0.1322 0.068569 0.017264 153 156 152
0.1322 0.068569 0.021974 152 156 152
0.1322 0.073279 0.021974 151 155 153
0.13691 0.068569 0.017264 160 163 158
0.13691 0.068569 0.021974 153 158 155
0.13691 0.073279 0.021974 149 154 153
0.1322 0.077989 0.021974 151 156 154
0.13691 0.077989 0.021974 151 155 153
0.13691 0.082699 0.021974 151 155 153
0.1322 0.077989 0.026684 150 155 153
0.1322 0.082699 0.026684 151 155 153
0.13691 0.077989 0.026684 155 158 156
0.13691 0.082699 0.026684 160 162 158
0.14162 0.068569 0.017264 148 152 150
0.14162 0.068569 0.021974 154 158 153
0.14162 0.073279 0.021974 157 160 156
0.14633 0.068569 0.017264 160 161 155
0.14633 0.068569 0.021974 157 161 157
0.14633 0.073279 0.021974 153 157 155
0.14162 0.077989 0.021974 154 159 155
0.14633 0.077989 0.021974 156 159 156
0.14162 0.077989 0.026684 155 159 155
0.14162 0.082699 0.026684 157 160 157
0.14633 0.077989 0.026684 156 160 156
0.14633 0.082699 0.026684 157 159 155
0.15104 0.054439 0.017264 165 167 160
0.15575 0.049729 0.017264 167 169 163
0.15575 0.054439 0.017264 161 163 159
0.15104 0.059149 0.017264 164 166 159
0.15104 0.063859 0.017264 156 160 156
0.15575 0.059149 0.017264 159 161 157
0.15575 0.063859 0.017264 161 163 158
0.15575 0.063859 0.021974 161 163 161
0.16046 0.049729 0.017264 158 161 157
0.16046 0.054439 0.017264 158 161 158
0.16517 0.049729 0.017264 161 163 158
0.16517 0.054439 0.017264 159 161 154
0.16046 0.059149 0.017264 157 159 155
0.16046 0.063859 0.017264 160 162 156
0.16517 0.059149 0.017264 160 161 155
0.16517 0.063859 0.017264 172 171 157
0.16517 0.063859 0.021974 191 189 166
0.15104 0.068569 0.017264 151 155 154
0.15104 0.068569 0.021974 150 155 154
0.15104 0.073279 0.021974 153 155 152
0.15575 0.068569 0.017264 160 162 156
0.15575 0.068569 0.021974 159 161 156
0.15575 0.073279 0.021974 163 165 159
0.15104 0.077989 0.021974 159 162 156
0.15104 0.082699 0.021974 162 164 157
0.15575 0.077989 0.021974 169 169 159
0.15575 0.082699 0.021974 182 183 169
0.15104 0.077989 0.026684 160 162 157
0.15104 0.082699 0.026684 163 164 158
0.15575 0.077989 0.026684 169 169 159
0.15575 0.082699 0.026684 179 179 167
0.16046 0.068569 0.017264 162 164 157
0.16046 0.068569 0.021974 173 173 159
0.16046 0.073279 0.021974 185 183 163
0.16517 0.068569 0.021974 195 192 169
0.16517 0.073279 0.021974 200 197 173
0.16046 0.073279 0.026684 203 199 173
0.16517 0.068569 0.026684 185 185 174
0.16517 0.073279 0.026684 185 185 171
0.16046 0.077989 0.021974 180 178 164
0.16046 0.077989 0.026684 197 193 169
0.16046 0.082699 0.026684 192 190 170
0.16046 0.082699 0.031394 182 182 167
0.16517 0.077989 0.026684 184 184 169
0.16517 0.077989 0.031394 179 178 167
0.16517 0.082699 0.026684 185 183 165
0.16517 0.082699 0.031394 186 185 170
0.17459 0.026179 0.017264 154 138 125
0.17459 0.026179 0.021974 137 124 112
0.1793 0.026179 0.017264 155 158 168
0.18401 0.026179 0.017264 155 152 154
0.16988 0.045019 0.017264 162 162 155
0.17459 0.045019 0.017264 168 166 151
0.1793 0.030889 0.017264 159 152 133
0.1793 0.035599 0.017264 171 164 137
0.18401 0.030889 0.017264 171 162 138
0.18401 0.035599 0.017264 178 172 146
0.18401 0.035599 0.021974 176 175 160
0.1793 0.040309 0.017264 188 176 142
0.1793 0.045019 0.017264 189 185 162
0.1793 0.045019 0.021974 185 183 165
0.18401 0.040309 0.017264 181 179 160
0.18401 0.040309 0.021974 176 173 157
0.18401 0.045019 0.017264 178 177 165
0.18401 0.045019 0.021974 186 182 162
0.18872 0.026179 0.017264 165 168 170
0.18872 0.026179 0.021974 150 146 142
0.19343 0.026179 0.021974 167 162 156
0.19343 0.026179 0.026684 196 193 176
0.19814 0.026179 0.021974 185 184 178
0.19814 0.026179 0.026684 171 164 159
0.20285 0.026179 0.026684 173 172 170
0.20285 0.026179 0.031394 175 172 161
0.18872 0.030889 0.017264 177 171 150
0.18872 0.030889 0.021974 168 167 154
0.18872 0.035599 0.021974 169 168 155
0.19343 0.030889 0.021974 172 171 155
0.19343 0.035599 0.021974 168 169 159
0.19343 0.030889 0.026684 168 167 154
0.19343 0.035599 0.026684 173 172 158
0.18872 0.040309 0.021974 178 175 159
0.18872 0.045019 0.021974 186 183 164
0.19343 0.040309 0.021974 167 168 157
0.18872 0.040309 0.026684 173 170 157
0.18872 0.045019 0.026684 184 181 161
0.19343 0.040309 0.026684 179 178 161
0.19343 0.045019 0.026684 177 177 164
0.19343 0.045019 0.031394 176 175 164
0.19814 0.030889 0.021974 178 172 156
0.19814 0.030889 0.026684 172 170 154
0.19814 0.035599 0.026684 179 177 160
0.19814 0.035599 0.031394 177 175 161
0.20285 0.030889 0.026684 176 173 156
0.20285 0.030889 0.031394 174 172 157
0.20285 0.035599 0.026684 178 176 160
0.20285 0.035599 0.031394 182 178 159
0.19814 0.040309 0.026684 174 174 165
0.19814 0.040309 0.031394 174 173 162
0.19814 0.045019 0.031394 182 178 161
0.20285 0.040309 0.031394 181 179 161
0.20285 0.045019 0.031394 185 183 166
0.20285 0.040309 0.036104 183 181 166
0.20285 0.045019 0.036104 182 180 164
0.16988 0.049729 0.017264 160 160 153
0.16988 0.054439 0.017264 168 166 154
0.17459 0.049729 0.017264 182 180 164
0.17459 0.054439 0.017264 191 188 167
0.17459 0.054439 0.021974 189 188 170
0.16988 0.059149 0.017264 188 185 161
0.16988 0.059149 0.021974 198 195 172
0.16988 0.063859 0.017264 195 193 169
0.16988 0.063859 0.021974 191 190 173
0.17459 0.059149 0.021974 187 186 170
0.17459 0.063859 0.021974 185 184 169
0.16988 0.063859 0.026684 180 181 172
0.17459 0.059149 0.026684 185 186 173
0.17459 0.063859 0.026684 183 184 170
0.1793 0.049729 0.017264 194 191 171
0.1793 0.049729 0.021974 185 183 167
0.1793 0.054439 0.021974 187 185 168
0.18401 0.049729 0.021974 188 186 166
0.18401 0.054439 0.021974 187 187 169
0.1793 0.054439 0.026684 183 183 170
0.18401 0.049729 0.026684 178 177 165
0.18401 0.054439 0.026684 178 177 165
0.1793 0.059149 0.021974 190 189 172
0.1793 0.059149 0.026684 176 177 166
0.1793 0.063859 0.026684 181 180 165
0.1793 0.063859 0.031394 186 186 173
0.18401 0.059149 0.026684 187 185 165
0.18401 0.059149 0.031394 178 177 168
0.18401 0.063859 0.026684 193 193 173
0.18401 0.063859 0.031394 176 176 165
0.16988 0.068569 0.021974 185 185 173
0.16988 0.068569 0.026684 182 182 169
0.16988 0.073279 0.026684 180 179 166
0.16988 0.073279 0.031394 198 193 166
0.17459 0.068569 0.026684 182 180 165
0.17459 0.068569 0.031394 197 195 171
0.17459 0.073279 0.026684 184 180 163
0.17459 0.073279 0.031394 188 188 171
0.16988 0.077989 0.026684 176 175 163
0.16988 0.077989 0.031394 193 191 171
0.16988 0.082699 0.031394 186 186 172
0.17459 0.077989 0.031394 177 177 167
0.17459 0.082699 0.031394 173 173 164
0.1793 0.068569 0.026684 194 189 165
0.1793 0.068569 0.031394 183 183 169
0.1793 0.073279 0.031394 176 176 165
0.18401 0.068569 0.031394 181 181 167
0.18401 0.073279 0.031394 181 181 172
0.1793 0.077989 0.031394 184 184 170
0.16988 0.082699 0.036104 178 178 167
0.17459 0.077989 0.036104 187 186 173
0.17459 0.082699 0.036104 189 188 171
0.17459 0.082699 0.040814 190 190 172
0.1793 0.073279 0.036104 184 184 170
0.18401 0.068569 0.036104 197 192 168
0.18401 0.073279 0.036104 194 191 169
0.18401 0.073279 0.040814 193 191 172
0.1793 0.077989 0.036104 194 192 171
0.1793 0.077989 0.040814 195 194 176
0.1793 0.082699 0.036104 198 195 171
0.1793 0.082699 0.040814 182 184 172
0.18401 0.077989 0.036104 203 199 173
0.18401 0.077989 0.040814 189 188 169
0.18401 0.082699 0.040814 178 180 171
0.18401 0.082699 0.045524 181 182 173
0.18872 0.049729 0.026684 182 181 165
0.18872 0.054439 0.026684 181 182 168
0.18872 0.054439 0.031394 172 172 164
0.19343 0.049729 0.026684 178 178 167
0.19343 0.049729 0.031394 176 176 162
0.19343 0.054439 0.031394 184 181 161
0.18872 0.059149 0.031394 178 177 162
0.18872 0.063859 0.031394 183 182 168
0.19343 0.059149 0.031394 196 192 167
0.19814 0.049729 0.031394 193 188 165
0.19814 0.054439 0.031394 194 191 166
0.20285 0.049729 0.031394 185 182 167
0.18872 0.063859 0.036104 194 189 166
0.19343 0.059149 0.036104 192 188 164
0.19343 0.063859 0.036104 196 192 166
0.19343 0.063859 0.040814 188 182 161
0.19814 0.049729 0.036104 186 184 165
0.19814 0.054439 0.036104 189 186 165
0.20285 0.049729 0.036104 186 183 165
0.20285 0.049729 0.040814 197 194 166
0.20285 0.054439 0.036104 195 191 166
0.20285 0.054439 0.040814 188 184 164
0.19814 0.059149 0.036104 195 192 167
0.19814 0.059149 0.040814 188 184 165
0.19814 0.063859 0.036104 190 189 171
0.19814 0.063859 0.040814 198 192 164
0.20285 0.059149 0.040814 197 189 161
0.20285 0.063859 0.040814 201 198 169
0.19814 0.063859 0.045524 187 185 167
0.20285 0.059149 0.045524 196 192 167
0.20285 0.063859 0.045524 188 186 167
0.18872 0.068569 0.031394 191 188 168
0.18872 0.068569 0.036104 196 193 168
0.18872 0.068569 0.040814 187 183 166
0.18872 0.073279 0.036104 196 193 171
0.18872 0.073279 0.040814 192 188 167
0.19343 0.068569 0.036104 188 188 172
0.19343 0.068569 0.040814 195 190 166
0.19343 0.073279 0.040814 190 187 168
0.19343 0.068569 0.045524 187 186 167
0.19343 0.073279 0.045524 191 188 168
0.18872 0.077989 0.040814 184 183 169
0.18872 0.077989 0.045524 188 187 171
0.18872 0.082699 0.045524 179 181 171
0.18872 0.082699 0.050234 173 174 166
0.19343 0.077989 0.045524 189 189 171
0.19343 0.077989 0.050234 177 177 166
0.19343 0.082699 0.045524 177 177 168
0.19343 0.082699 0.050234 175 175 164
0.19814 0.068569 0.040814 189 188 170
0.19814 0.068569 0.045524 186 184 167
0.19814 0.073279 0.045524 193 190 169
0.19814 0.073279 0.050234 182 182 168
0.20285 0.068569 0.045524 192 188 166
0.20285 0.068569 0.050234 189 189 171
0.20285 0.073279 0.050234 178 177 165
0.19814 0.077989 0.050234 178 177 162
0.19814 0.082699 0.050234 184 182 163
0.20285 0.077989 0.050234 191 185 160
0.20285 0.073279 0.054944 192 188 165
0.19814 0.077989 0.054944 192 192 168
0.19814 0.082699 0.054944 166 168 160
0.20285 0.077989 0.054944 180 179 164
0.20285 0.077989 0.059654 169 172 157
0.20285 0.082699 0.054944 162 165 157
0.20285 0.082699 0.059654 134 140 137
0.05684 0.00733902 0.196244 224 215 173
0.05684 0.00733902 0.200954 189 164 125
0.06155 0.00733902 0.200954 192 168 135
0.06626 0.00733902 0.200954 167 140 109
0.06155 0.00733902 0.205664 236 219 178
0.06155 0.00733902 0.210374 238 221 181
0.06626 0.00262902 0.205664 224 218 175
0.06626 0.00733902 0.205664 217 199 161
0.06626 0.00733902 0.210374 238 221 180
0.07097 0.00262902 0.205664 224 216 172
0.07097 0.00262902 0.210374 216 201 160
0.07097 0.00733902 0.205664 181 150 116
0.07097 0.00733902 0.210374 179 133 94
0.07568 0.00262902 0.210374 217 206 164
0.07568 0.00733902 0.210374 208 154 92
0.08039 0.00262902 0.210374 202 193 159
0.08039 0.00733902 0.210374 184 137 91
0.08039 0.00733902 0.215084 196 138 74
0.0851 0.00262902 0.215084 216 212 171
0.0851 0.00733902 0.215084 136 99 72
0.08981 0.00262902 0.215084 181 172 141
0.08981 0.00733902 0.215084 106 85 60
0.09452 0.00262902 0.215084 181 171 140
0.09452 0.00733902 0.215084 83 67 48
0.09923 0.00262902 0.219794 189 180 149
0.09923 0.00733902 0.219794 106 84 62
0.10394 0.00262902 0.219794 186 172 138
0.10394 0.00733902 0.219794 107 82 58
0.10865 0.00262902 0.219794 207 171 127
0.10865 0.00733902 0.219794 184 138 71
0.10394 0.00733902 0.224504 87 65 46
0.11336 0.00733902 0.219794 175 120 57
0.11807 0.00262902 0.219794 132 116 92
0.11807 0.00733902 0.219794 78 54 37
0.12278 0.00733902 0.219794 90 48 31
0.12749 0.00733902 0.219794 100 45 28
0.11336 0.00262902 0.224504 163 105 76
0.11336 0.00733902 0.224504 196 137 69
0.11807 0.00733902 0.224504 126 73 50
0.12278 0.00262902 0.224504 169 148 120
0.12278 0.00733902 0.224504 103 61 39
0.12749 0.00262902 0.224504 140 98 84
0.12749 0.00733902 0.224504 135 63 38
0.12749 0.00733902 0.229214 126 69 43
0.05684 0.054439 0.116174 246 205 123
0.06155 0.054439 0.116174 247 214 144
0.05684 0.054439 0.120884 246 205 119
0.05684 0.054439 0.125594 239 198 112
0.06155 0.054439 0.120884 244 204 124
0.06155 0.054439 0.125594 198 163 87
0.05684 0.059149 0.111464 207 166 73
0.05684 0.059149 0.116174 218 181 103
0.05684 0.063859 0.111464 204 179 136
0.05684 0.063859 0.116174 178 160 118
0.06155 0.059149 0.111464 210 168 73
0.06155 0.059149 0.116174 237 200 120
0.06155 0.063859 0.116174 188 158 102
0.05684 0.059149 0.120884 228 195 124
0.05684 0.059149 0.125594 172 143 88
0.05684 0.063859 0.120884 174 139 82
0.06155 0.059149 0.120884 243 219 150
0.06155 0.059149 0.125594 175 135 70
0.06155 0.063859 0.125594 188 159 106
0.06626 0.054439 0.120884 217 186 107
0.06626 0.054439 0.125594 185 145 72
0.07097 0.054439 0.125594 213 162 82
0.06626 0.059149 0.116174 241 207 128
0.06626 0.063859 0.116174 193 154 78
0.07097 0.059149 0.116174 221 192 111
0.07097 0.063859 0.116174 200 155 79
0.06626 0.059149 0.120884 222 185 107
0.06626 0.059149 0.125594 205 170 108
0.06626 0.063859 0.125594 195 167 119
0.07097 0.059149 0.120884 198 154 74
0.07097 0.059149 0.125594 190 157 101
0.07097 0.063859 0.120884 185 150 93
0.07097 0.063859 0.125594 215 185 128
0.05684 0.068569 0.111464 169 149 105
0.05684 0.068569 0.116174 159 145 111
0.05684 0.073279 0.111464 178 161 115
0.06155 0.068569 0.111464 157 144 113
0.06155 0.068569 0.116174 175 161 124
0.06155 0.073279 0.111464 157 141 104
0.06155 0.073279 0.116174 175 163 124
0.06155 0.068569 0.125594 208 176 123
0.05684 0.077989 0.111464 182 165 119
0.05684 0.082699 0.111464 177 162 118
0.06155 0.077989 0.111464 171 153 106
0.06155 0.082699 0.111464 180 162 113
0.06626 0.068569 0.111464 183 165 129
0.06626 0.068569 0.116174 179 163 124
0.06626 0.073279 0.111464 151 142 112
0.06626 0.073279 0.116174 159 149 114
0.07097 0.068569 0.111464 178 161 125
0.07097 0.068569 0.116174 175 157 109
0.07097 0.073279 0.111464 127 124 106
0.07097 0.073279 0.116174 137 134 114
0.06626 0.068569 0.120884 203 172 117
0.06626 0.073279 0.125594 227 202 148
0.07097 0.068569 0.120884 201 175 124
0.07097 0.068569 0.125594 223 198 148
0.07097 0.073279 0.125594 214 191 143
0.06626 0.077989 0.111464 144 135 103
0.06626 0.082699 0.111464 140 128 95
0.07097 0.077989 0.111464 87 84 72
0.07097 0.082699 0.111464 115 104 75
0.07097 0.077989 0.125594 213 188 139
0.07568 0.063859 0.116174 195 155 84
0.07568 0.059149 0.120884 197 154 83
0.07568 0.063859 0.120884 184 155 103
0.07568 0.063859 0.125594 224 197 146
0.07568 0.068569 0.116174 164 147 103
0.07568 0.073279 0.111464 135 125 93
0.07568 0.073279 0.116174 145 132 93
0.08039 0.068569 0.116174 180 160 117
0.08039 0.073279 0.111464 156 138 102
0.08039 0.073279 0.116174 163 147 111
0.07568 0.068569 0.120884 198 172 120
0.07568 0.073279 0.120884 201 180 133
0.07568 0.073279 0.125594 218 194 148
0.08039 0.068569 0.120884 200 177 128
0.08039 0.073279 0.120884 190 170 130
0.08039 0.073279 0.125594 214 193 146
0.07568 0.077989 0.111464 95 90 74
0.07568 0.077989 0.116174 136 124 96
0.07568 0.082699 0.111464 83 77 59
0.08039 0.077989 0.111464 147 131 97
0.08039 0.077989 0.116174 155 142 108
0.08039 0.082699 0.111464 122 113 91
0.08039 0.082699 0.116174 151 138 106
0.07568 0.077989 0.125594 212 191 145
0.08039 0.077989 0.120884 174 162 127
0.08039 0.077989 0.125594 204 184 142
0.08039 0.082699 0.120884 157 148 119
0.08039 0.082699 0.125594 196 176 138
0.0851 0.068569 0.120884 201 178 128
0.0851 0.077989 0.111464 140 127 89
0.0851 0.077989 0.116174 148 136 103
0.0851 0.082699 0.111464 121 112 83
0.0851 0.082699 0.116174 142 130 101
0.08981 0.082699 0.111464 121 110 77
0.08981 0.082699 0.116174 135 126 99
0.0851 0.082699 0.120884 156 145 117
0.0851 0.082699 0.125594 184 170 137
0.08981 0.082699 0.125594 190 170 131
0.05684 0.054439 0.130304 182 152 88
0.05684 0.054439 0.135014 182 151 96
0.06155 0.054439 0.130304 182 143 72
0.05684 0.054439 0.144434 223 188 133
0.05684 0.059149 0.130304 179 150 96
0.05684 0.059149 0.135014 198 167 115
0.05684 0.063859 0.130304 205 178 126
0.05684 0.063859 0.135014 219 185 129
0.06155 0.059149 0.130304 179 149 95
0.06155 0.059149 0.135014 217 182 126
0.06155 0.063859 0.130304 196 166 113
0.06155 0.063859 0.135014 230 201 146
0.05684 0.059149 0.139724 226 197 142
0.05684 0.059149 0.144434 228 204 152
0.05684 0.063859 0.139724 231 205 147
0.05684 0.063859 0.144434 233 214 162
0.06155 0.059149 0.144434 236 215 160
0.06155 0.063859 0.139724 232 206 149
0.06155 0.063859 0.144434 232 210 152
0.06626 0.054439 0.130304 192 157 92
0.06626 0.063859 0.130304 219 185 126
0.06626 0.063859 0.135014 224 194 137
0.06626 0.063859 0.139724 234 216 167
0.05684 0.054439 0.153854 226 197 144
0.05684 0.049729 0.158564 233 207 156
0.05684 0.049729 0.163274 227 197 144
0.05684 0.054439 0.158564 237 215 161
0.05684 0.054439 0.163274 237 208 144
0.06155 0.054439 0.163274 240 220 155
0.05684 0.059149 0.149144 230 203 148
0.05684 0.059149 0.153854 232 206 148
0.05684 0.063859 0.149144 235 214 161
0.05684 0.063859 0.153854 238 218 164
0.06155 0.059149 0.149144 237 212 154
0.06155 0.059149 0.153854 237 216 162
0.06155 0.063859 0.149144 236 219 169
0.06155 0.063859 0.153854 237 217 163
0.05684 0.059149 0.158564 236 211 155
0.05684 0.059149 0.163274 232 200 139
0.05684 0.063859 0.158564 236 218 167
0.06155 0.059149 0.158564 238 218 168
0.06155 0.059149 0.163274 237 213 153
0.06155 0.063859 0.158564 237 219 168
0.06155 0.063859 0.163274 239 223 179
0.07097 0.054439 0.163274 244 223 163
0.06626 0.063859 0.149144 236 217 166
0.06626 0.063859 0.153854 238 222 176
0.07097 0.063859 0.153854 238 224 182
0.06626 0.059149 0.158564 243 230 195
0.06626 0.059149 0.163274 236 211 153
0.06626 0.063859 0.158564 240 225 180
0.06626 0.063859 0.163274 237 212 148
0.07097 0.059149 0.158564 242 230 193
0.07097 0.059149 0.163274 241 223 169
0.07097 0.063859 0.158564 239 220 171
0.07097 0.063859 0.163274 237 211 150
0.05684 0.068569 0.135014 228 204 154
0.06155 0.068569 0.135014 226 204 152
0.06155 0.073279 0.135014 223 198 148
0.06155 0.068569 0.139724 232 206 148
0.06155 0.068569 0.144434 233 212 159
0.06155 0.073279 0.139724 229 210 160
0.06155 0.073279 0.144434 232 214 167
0.06626 0.068569 0.130304 228 203 151
0.06626 0.068569 0.135014 228 207 155
0.06626 0.073279 0.130304 230 211 165
0.06626 0.073279 0.135014 225 203 156
0.07097 0.068569 0.130304 233 211 164
0.07097 0.068569 0.135014 229 209 159
0.07097 0.073279 0.130304 221 198 151
0.07097 0.073279 0.135014 227 206 157
0.06626 0.068569 0.139724 232 213 163
0.06626 0.068569 0.144434 233 215 166
0.06626 0.073279 0.139724 229 209 158
0.07097 0.068569 0.139724 231 213 165
0.07097 0.068569 0.144434 233 213 163
0.07097 0.073279 0.139724 229 210 161
0.07097 0.073279 0.144434 231 211 160
0.05684 0.068569 0.149144 236 218 169
0.06155 0.068569 0.149144 236 220 174
0.06155 0.068569 0.153854 237 223 181
0.06626 0.068569 0.149144 234 217 168
0.06626 0.068569 0.153854 236 218 171
0.06626 0.073279 0.149144 234 217 167
0.07097 0.068569 0.149144 234 217 171
0.07097 0.068569 0.153854 235 218 171
0.07097 0.073279 0.149144 231 212 162
0.06626 0.068569 0.158564 234 213 158
0.07097 0.068569 0.158564 234 206 145
0.07568 0.054439 0.163274 218 170 101
0.08039 0.049729 0.163274 226 194 121
0.08039 0.054439 0.163274 132 108 87
0.07568 0.063859 0.153854 240 226 186
0.08039 0.059149 0.153854 241 228 190
0.08039 0.063859 0.153854 243 228 186
0.07568 0.059149 0.158564 243 227 184
0.07568 0.059149 0.163274 238 217 164
0.07568 0.063859 0.158564 242 225 178
0.07568 0.063859 0.163274 245 228 177
0.08039 0.059149 0.163274 222 181 115
0.08039 0.063859 0.158564 240 222 171
0.08039 0.063859 0.163274 242 217 149
0.08981 0.054439 0.153854 96 100 104
0.0851 0.049729 0.158564 139 148 150
0.0851 0.049729 0.163274 168 156 114
0.0851 0.054439 0.158564 74 82 92
0.0851 0.054439 0.163274 79 84 91
0.08981 0.049729 0.158564 130 133 132
0.08981 0.049729 0.163274 168 164 133
0.08981 0.054439 0.158564 116 123 127
0.08981 0.054439 0.163274 149 151 155
0.0851 0.059149 0.153854 74 66 71
0.0851 0.063859 0.153854 239 227 188
0.08981 0.059149 0.153854 103 87 79
0.08981 0.063859 0.153854 195 155 97
0.0851 0.059149 0.158564 185 148 102
0.0851 0.059149 0.163274 194 159 112
0.0851 0.063859 0.158564 233 207 151
0.0851 0.063859 0.163274 239 203 127
0.08981 0.059149 0.158564 199 158 103
0.08981 0.063859 0.158564 214 175 109
0.07568 0.073279 0.130304 221 199 152
0.07568 0.073279 0.135014 223 202 154
0.08039 0.073279 0.130304 215 193 144
0.08039 0.073279 0.135014 219 198 150
0.07568 0.073279 0.139724 226 206 159
0.07568 0.073279 0.144434 227 206 156
0.08039 0.073279 0.144434 226 204 153
0.07568 0.077989 0.135014 213 192 145
0.08039 0.077989 0.130304 214 193 148
0.08039 0.077989 0.135014 213 192 146
0.08039 0.082699 0.130304 201 182 139
0.08039 0.082699 0.135014 211 189 143
0.07568 0.077989 0.139724 221 200 152
0.07568 0.077989 0.144434 224 202 152
0.08039 0.077989 0.139724 219 197 151
0.08039 0.077989 0.144434 225 201 148
0.08039 0.082699 0.139724 216 193 147
0.08039 0.082699 0.144434 221 196 144
0.0851 0.073279 0.144434 227 206 159
0.0851 0.082699 0.130304 199 180 138
0.0851 0.082699 0.135014 207 186 143
0.08981 0.082699 0.135014 212 188 147
0.0851 0.077989 0.139724 221 199 150
0.0851 0.077989 0.144434 230 205 150
0.0851 0.082699 0.139724 218 192 141
0.0851 0.082699 0.144434 226 199 145
0.08981 0.077989 0.144434 235 213 159
0.08981 0.082699 0.144434 234 209 156
0.07568 0.068569 0.149144 232 210 157
0.07568 0.068569 0.153854 234 216 165
0.07568 0.073279 0.149144 229 205 150
0.07568 0.073279 0.153854 229 206 150
0.08039 0.068569 0.149144 237 217 166
0.08039 0.068569 0.153854 238 221 175
0.08039 0.073279 0.149144 231 204 145
0.08039 0.073279 0.153854 233 203 140
0.07568 0.068569 0.158564 239 218 164
0.07568 0.068569 0.163274 239 215 151
0.08039 0.068569 0.158564 238 218 163
0.08039 0.073279 0.158564 235 207 145
0.07568 0.077989 0.149144 224 193 134
0.07568 0.082699 0.153854 224 201 146
0.08039 0.077989 0.149144 229 202 144
0.08039 0.077989 0.153854 233 204 138
0.08039 0.082699 0.149144 221 196 146
0.08039 0.077989 0.158564 232 201 135
0.0851 0.068569 0.149144 239 219 172
0.0851 0.068569 0.153854 240 224 177
0.0851 0.073279 0.149144 239 217 165
0.0851 0.073279 0.153854 238 213 153
0.08981 0.073279 0.149144 239 218 163
0.08981 0.073279 0.153854 235 205 141
0.0851 0.068569 0.158564 239 215 149
0.0851 0.068569 0.163274 246 226 165
0.0851 0.073279 0.158564 243 218 148
0.08981 0.068569 0.158564 219 186 124
0.08981 0.073279 0.158564 242 217 155
0.0851 0.077989 0.149144 234 211 154
0.0851 0.077989 0.153854 235 208 144
0.0851 0.082699 0.149144 232 202 137
0.0851 0.082699 0.153854 233 204 139
0.08981 0.077989 0.149144 235 209 149
0.08981 0.077989 0.153854 235 203 137
0.08981 0.082699 0.149144 233 205 146
0.09452 0.082699 0.111464 136 122 94
0.10865 0.073279 0.125594 201 159 78
0.10865 0.077989 0.125594 198 157 76
0.12749 0.082699 0.106754 102 95 80
0.11807 0.073279 0.116174 53 52 48
0.11336 0.073279 0.120884 160 129 76
0.11336 0.073279 0.125594 171 143 79
0.11807 0.073279 0.120884 58 59 54
0.11807 0.073279 0.125594 147 129 73
0.11807 0.077989 0.116174 165 132 89
0.11336 0.077989 0.120884 163 127 65
0.11336 0.077989 0.125594 182 143 71
0.11336 0.082699 0.125594 182 144 75
0.11807 0.077989 0.120884 111 83 47
0.11807 0.077989 0.125594 175 139 68
0.11807 0.082699 0.120884 164 128 65
0.11807 0.082699 0.125594 178 140 74
0.12278 0.073279 0.116174 25 28 28
0.12278 0.073279 0.120884 60 56 37
0.12278 0.073279 0.125594 86 62 27
0.12749 0.073279 0.120884 95 68 24
0.12749 0.073279 0.125594 96 62 20
0.12278 0.077989 0.116174 49 40 33
0.12278 0.082699 0.111464 92 67 38
0.12278 0.082699 0.116174 135 108 58
0.12749 0.077989 0.111464 46 40 36
0.12749 0.077989 0.116174 47 43 29
0.12749 0.082699 0.111464 75 63 47
0.12749 0.082699 0.116174 104 78 40
0.12278 0.077989 0.120884 68 56 37
0.12278 0.082699 0.120884 150 116 57
0.12749 0.077989 0.120884 73 60 27
0.09452 0.063859 0.144434 205 151 69
0.09923 0.059149 0.139724 232 172 75
0.09923 0.059149 0.144434 214 160 73
0.09923 0.063859 0.139724 200 147 61
0.09923 0.063859 0.144434 206 150 65
0.10394 0.059149 0.144434 225 139 68
0.10394 0.063859 0.139724 210 165 72
0.10394 0.063859 0.144434 223 169 75
0.10865 0.063859 0.139724 170 133 73
0.10865 0.063859 0.144434 167 145 85
0.09452 0.054439 0.153854 134 134 134
0.09923 0.054439 0.153854 145 152 158
0.09452 0.049729 0.163274 192 185 145
0.09452 0.054439 0.158564 132 135 136
0.09452 0.054439 0.163274 144 150 153
0.09923 0.054439 0.158564 118 127 134
0.09923 0.054439 0.163274 143 151 155
0.09452 0.059149 0.149144 167 135 100
0.09452 0.059149 0.153854 117 111 109
0.09452 0.063859 0.149144 197 155 84
0.09452 0.063859 0.153854 187 146 92
0.09923 0.059149 0.149144 188 129 69
0.09923 0.059149 0.153854 114 101 92
0.09452 0.063859 0.158564 110 106 91
0.09923 0.059149 0.158564 96 97 99
0.10394 0.054439 0.158564 125 132 137
0.10394 0.054439 0.163274 143 151 157
0.10865 0.054439 0.158564 147 150 156
0.10865 0.054439 0.163274 135 147 158
0.10394 0.059149 0.149144 197 133 71
0.10394 0.059149 0.153854 110 76 47
0.10394 0.063859 0.149144 237 175 78
0.10394 0.063859 0.153854 249 200 118
0.10865 0.059149 0.149144 176 130 78
0.10865 0.059149 0.153854 130 112 94
0.10865 0.063859 0.149144 243 190 101
0.10865 0.063859 0.153854 225 159 92
0.10394 0.059149 0.158564 96 87 76
0.10394 0.059149 0.163274 143 153 161
0.10865 0.059149 0.158564 134 135 136
0.10865 0.059149 0.163274 139 150 161
0.10865 0.063859 0.158564 206 137 77
0.09923 0.068569 0.139724 215 161 73
0.09923 0.068569 0.144434 216 167 79
0.09923 0.073279 0.144434 212 164 86
0.09452 0.082699 0.144434 234 203 138
0.09923 0.077989 0.144434 224 178 103
0.09923 0.082699 0.144434 225 176 104
0.10394 0.068569 0.135014 185 134 55
0.10394 0.073279 0.135014 214 165 77
0.10865 0.068569 0.130304 190 147 67
0.10865 0.068569 0.135014 210 165 75
0.10865 0.073279 0.130304 212 164 77
0.10865 0.073279 0.135014 215 166 81
0.10394 0.068569 0.139724 203 144 59
0.10394 0.073279 0.139724 209 161 80
0.10394 0.073279 0.144434 208 161 84
0.10865 0.068569 0.139724 224 154 73
0.10865 0.077989 0.130304 204 160 80
0.10865 0.077989 0.135014 209 162 82
0.10865 0.082699 0.130304 202 156 83
0.10865 0.082699 0.135014 211 165 87
0.10394 0.077989 0.139724 211 163 85
0.10394 0.077989 0.144434 218 170 92
0.10394 0.082699 0.139724 224 176 98
0.10394 0.082699 0.144434 225 178 103
0.10865 0.077989 0.139724 212 164 84
0.10865 0.082699 0.139724 223 175 96
0.09452 0.068569 0.149144 209 162 89
0.09452 0.068569 0.153854 216 172 100
0.09452 0.073279 0.149144 224 177 104
0.09452 0.073279 0.153854 232 194 123
0.09923 0.068569 0.149144 211 164 88
0.09923 0.073279 0.149144 220 174 96
0.09452 0.068569 0.158564 219 172 105
0.09452 0.077989 0.149144 238 201 127
0.09452 0.077989 0.153854 236 202 132
0.09452 0.082699 0.149144 235 203 138
0.09452 0.082699 0.153854 235 199 132
0.09923 0.077989 0.149144 230 183 106
0.09923 0.082699 0.149144 235 203 137
0.09923 0.082699 0.153854 231 192 125
0.10865 0.068569 0.149144 248 226 162
0.10394 0.082699 0.149144 234 190 112
0.11336 0.063859 0.144434 207 170 102
0.11807 0.063859 0.139724 240 194 108
0.11807 0.063859 0.144434 245 202 118
0.12278 0.059149 0.144434 245 195 106
0.12278 0.063859 0.139724 229 163 71
0.12278 0.063859 0.144434 200 166 89
0.12749 0.063859 0.144434 138 142 99
0.11336 0.059149 0.149144 227 172 124
0.11336 0.059149 0.153854 180 158 142
0.11336 0.063859 0.149144 246 199 114
0.11336 0.063859 0.153854 240 188 108
0.11807 0.059149 0.153854 155 134 119
0.11807 0.063859 0.149144 246 205 123
0.11807 0.063859 0.153854 231 165 93
0.11336 0.059149 0.158564 146 146 150
0.11336 0.059149 0.163274 134 147 162
0.11336 0.063859 0.158564 231 177 115
0.11807 0.059149 0.158564 123 122 123
0.11807 0.059149 0.163274 131 139 145
0.11807 0.063859 0.158564 196 126 72
0.12278 0.054439 0.163274 139 145 154
0.12278 0.059149 0.153854 189 138 82
0.12278 0.063859 0.149144 230 201 130
0.12278 0.063859 0.153854 215 155 86
0.12749 0.059149 0.149144 247 209 135
0.12749 0.059149 0.153854 146 146 143
0.12749 0.063859 0.149144 230 202 135
0.12749 0.063859 0.153854 248 186 106
0.12278 0.059149 0.158564 130 128 122
0.12278 0.059149 0.163274 114 111 110
0.12278 0.063859 0.158564 181 125 74
0.12278 0.063859 0.163274 91 68 44
0.12749 0.059149 0.158564 111 108 96
0.12749 0.059149 0.163274 130 128 123
0.12749 0.063859 0.158564 188 132 84
0.11336 0.068569 0.130304 198 165 82
0.11336 0.068569 0.135014 226 189 101
0.11336 0.073279 0.130304 195 156 75
0.11807 0.068569 0.130304 214 168 83
0.11807 0.068569 0.135014 217 169 84
0.11807 0.073279 0.130304 166 137 61
0.11336 0.068569 0.139724 233 169 89
0.11336 0.068569 0.144434 222 173 97
0.11807 0.068569 0.139724 216 176 95
0.11336 0.077989 0.130304 193 151 75
0.11336 0.082699 0.130304 196 154 81
0.11336 0.082699 0.135014 207 165 91
0.11807 0.082699 0.144434 104 64 21
0.12278 0.068569 0.130304 152 124 57
0.12278 0.068569 0.135014 192 161 87
0.12278 0.073279 0.130304 69 50 26
0.12278 0.073279 0.135014 76 70 49
0.12749 0.068569 0.135014 181 166 108
0.12749 0.073279 0.130304 64 44 24
0.12749 0.073279 0.135014 64 56 38
0.12278 0.068569 0.139724 233 177 88
0.12278 0.068569 0.144434 190 122 62
0.12749 0.068569 0.139724 237 182 99
0.12749 0.068569 0.144434 184 135 77
0.11336 0.068569 0.149144 247 213 142
0.12749 0.068569 0.149144 126 73 42
0.05684 0.012049 0.191534 181 180 165
0.05684 0.016759 0.191534 183 179 164
0.05684 0.012049 0.196244 179 177 164
0.05684 0.012049 0.200954 183 180 167
0.05684 0.016759 0.196244 180 176 159
0.05684 0.016759 0.200954 181 180 170
0.06155 0.012049 0.196244 156 116 87
0.06155 0.012049 0.200954 169 141 113
0.06155 0.016759 0.196244 178 176 163
0.06155 0.016759 0.200954 175 163 145
0.05684 0.021469 0.191534 188 179 152
0.05684 0.026179 0.191534 180 179 161
0.06155 0.026179 0.191534 218 209 173
0.05684 0.021469 0.196244 183 179 158
0.05684 0.026179 0.196244 183 180 164
0.06155 0.021469 0.196244 180 179 164
0.06155 0.021469 0.200954 177 173 156
0.06155 0.026179 0.196244 193 187 162
0.06155 0.026179 0.200954 184 175 155
0.06626 0.016759 0.200954 142 105 82
0.06626 0.021469 0.200954 170 135 108
0.06626 0.026179 0.196244 206 200 167
0.06626 0.026179 0.200954 197 188 156
0.07097 0.021469 0.200954 197 128 94
0.07097 0.026179 0.200954 213 198 169
0.05684 0.035599 0.177404 116 136 150
0.05684 0.035599 0.182114 114 133 152
0.06155 0.035599 0.182114 125 141 155
0.05684 0.040309 0.172694 118 135 142
0.05684 0.045019 0.167984 216 178 127
0.05684 0.045019 0.172694 195 168 123
0.05684 0.040309 0.177404 101 119 136
0.05684 0.040309 0.182114 107 128 148
0.05684 0.045019 0.177404 195 161 127
0.05684 0.045019 0.182114 167 135 108
0.06155 0.040309 0.177404 113 129 142
0.06155 0.040309 0.182114 132 146 159
0.06155 0.045019 0.177404 144 116 101
0.06155 0.045019 0.182114 138 109 96
0.06626 0.035599 0.182114 146 157 172
0.07097 0.040309 0.172694 252 191 98
0.07097 0.045019 0.172694 240 200 109
0.06626 0.040309 0.177404 179 163 147
0.06626 0.040309 0.182114 142 147 157
0.06626 0.045019 0.177404 179 144 96
0.07097 0.040309 0.177404 232 180 104
0.07097 0.040309 0.182114 201 170 127
0.07097 0.045019 0.177404 246 205 117
0.07097 0.045019 0.182114 235 189 99
0.05684 0.030889 0.186824 101 124 144
0.05684 0.030889 0.191534 108 131 143
0.05684 0.035599 0.186824 104 128 148
0.05684 0.035599 0.191534 89 115 134
0.06155 0.030889 0.191534 161 173 165
0.06155 0.035599 0.186824 123 142 157
0.06155 0.035599 0.191534 153 164 175
0.05684 0.035599 0.196244 88 112 133
0.06155 0.030889 0.196244 141 160 164
0.06155 0.035599 0.196244 96 119 138
0.06155 0.035599 0.200954 95 119 141
0.06626 0.030889 0.191534 136 159 181
0.06626 0.035599 0.186824 142 157 172
0.06626 0.035599 0.191534 138 157 171
0.07097 0.030889 0.191534 176 182 176
0.07097 0.035599 0.186824 124 141 157
0.07097 0.035599 0.191534 134 153 164
0.06626 0.030889 0.196244 187 195 189
0.06626 0.030889 0.200954 191 195 182
0.06626 0.035599 0.196244 115 139 155
0.06626 0.035599 0.200954 101 127 148
0.07097 0.030889 0.196244 202 204 192
0.07097 0.030889 0.200954 211 207 178
0.07097 0.035599 0.196244 148 165 169
0.07097 0.035599 0.200954 116 139 157
0.06626 0.040309 0.186824 149 162 178
0.07097 0.040309 0.186824 128 139 150
0.07568 0.026179 0.200954 223 207 176
0.08039 0.026179 0.200954 228 219 198
0.07568 0.045019 0.172694 248 200 114
0.08039 0.045019 0.167984 252 193 100
0.08039 0.045019 0.172694 232 180 97
0.07568 0.040309 0.177404 218 171 89
0.07568 0.040309 0.182114 214 172 89
0.07568 0.045019 0.177404 240 187 101
0.07568 0.045019 0.182114 233 177 89
0.08039 0.040309 0.177404 202 168 91
0.08039 0.045019 0.177404 217 173 94
0.08039 0.045019 0.182114 203 168 88
0.0851 0.045019 0.172694 221 171 85
0.0851 0.045019 0.177404 214 168 82
0.0851 0.045019 0.182114 216 171 84
0.08981 0.045019 0.177404 220 169 80
0.08981 0.045019 0.182114 216 177 107
0.07568 0.035599 0.191534 146 159 166
0.08039 0.035599 0.191534 124 124 121
0.07568 0.030889 0.196244 195 202 185
0.07568 0.030889 0.200954 164 163 151
0.07568 0.035599 0.196244 132 129 125
0.07568 0.035599 0.200954 109 96 88
0.08039 0.030889 0.200954 176 174 160
0.08039 0.035599 0.196244 110 92 74
0.08039 0.035599 0.200954 125 117 108
0.07568 0.040309 0.186824 176 155 129
0.07568 0.040309 0.191534 128 138 149
0.08039 0.040309 0.186824 176 154 126
0.08039 0.040309 0.191534 137 146 156
0.08039 0.045019 0.186824 200 167 93
0.07568 0.040309 0.196244 124 137 146
0.08039 0.040309 0.196244 126 126 127
0.08981 0.035599 0.191534 148 137 120
0.0851 0.030889 0.196244 210 208 187
0.0851 0.030889 0.200954 211 206 181
0.0851 0.035599 0.196244 123 112 97
0.0851 0.035599 0.200954 191 193 177
0.08981 0.030889 0.200954 212 205 174
0.08981 0.035599 0.196244 153 156 147
0.08981 0.035599 0.200954 183 181 163
0.0851 0.040309 0.186824 166 153 143
0.0851 0.040309 0.191534 147 152 157
0.0851 0.045019 0.186824 208 167 96
0.08981 0.040309 0.186824 148 154 161
0.08981 0.040309 0.191534 146 153 160
0.08981 0.045019 0.186824 180 162 133
0.0851 0.040309 0.196244 125 121 117
0.08981 0.040309 0.196244 131 126 122
0.08981 0.040309 0.200954 121 107 92
0.06155 0.021469 0.205664 145 122 105
0.06626 0.012049 0.205664 174 144 107
0.06626 0.012049 0.210374 238 220 181
0.06626 0.016759 0.205664 182 151 119
0.06626 0.016759 0.210374 237 219 180
0.07097 0.012049 0.205664 162 116 80
0.07097 0.012049 0.210374 187 119 76
0.07097 0.016759 0.205664 178 125 79
0.07097 0.016759 0.210374 209 147 75
0.06626 0.021469 0.205664 128 81 63
0.06626 0.021469 0.210374 239 217 177
0.06626 0.026179 0.205664 193 179 154
0.07097 0.021469 0.205664 194 136 87
0.07097 0.021469 0.210374 236 219 179
0.07097 0.026179 0.205664 206 195 158
0.07097 0.026179 0.210374 214 184 118
0.06626 0.030889 0.205664 209 203 169
0.07097 0.030889 0.205664 205 199 166
0.07568 0.012049 0.205664 221 154 73
0.07568 0.012049 0.210374 226 156 70
0.07568 0.016759 0.205664 223 160 74
0.07568 0.016759 0.210374 224 160 73
0.08039 0.012049 0.210374 235 162 68
0.08039 0.016759 0.210374 228 161 70
0.08039 0.012049 0.215084 229 160 73
0.08039 0.016759 0.215084 229 162 71
0.07568 0.021469 0.205664 226 166 73
0.07568 0.021469 0.210374 224 168 75
0.07568 0.026179 0.205664 214 197 162
0.07568 0.026179 0.210374 220 180 100
0.08039 0.021469 0.210374 222 162 72
0.08039 0.026179 0.205664 214 207 176
0.08039 0.026179 0.210374 216 177 102
0.0851 0.012049 0.205664 219 172 94
0.0851 0.016759 0.210374 217 167 92
0.08981 0.012049 0.210374 111 76 58
0.0851 0.012049 0.215084 162 104 61
0.0851 0.016759 0.215084 213 151 70
0.08981 0.012049 0.215084 89 59 41
0.08981 0.016759 0.215084 143 94 61
0.0851 0.021469 0.205664 238 207 116
0.0851 0.021469 0.210374 233 182 92
0.0851 0.026179 0.205664 216 179 100
0.0851 0.026179 0.210374 226 193 112
0.08981 0.026179 0.205664 229 205 158
0.08981 0.026179 0.210374 218 174 96
0.0851 0.021469 0.215084 216 164 73
0.0851 0.026179 0.215084 219 172 75
0.08981 0.021469 0.215084 192 143 74
0.08981 0.021469 0.219794 216 162 74
0.08981 0.026179 0.215084 210 166 84
0.07568 0.030889 0.205664 207 199 168
0.08039 0.030889 0.205664 215 205 181
0.08039 0.030889 0.210374 199 190 171
0.0851 0.030889 0.205664 213 194 156
0.0851 0.030889 0.210374 208 188 144
0.08981 0.030889 0.205664 217 199 154
0.08981 0.030889 0.210374 249 235 181
0.08981 0.035599 0.205664 204 202 178
0.05684 0.049729 0.167984 236 211 155
0.05684 0.049729 0.172694 227 200 143
0.05684 0.054439 0.167984 238 217 157
0.05684 0.054439 0.172694 239 219 167
0.06155 0.049729 0.167984 230 208 154
0.06155 0.049729 0.172694 239 218 166
0.06155 0.054439 0.167984 236 212 151
0.06155 0.054439 0.172694 241 224 177
0.05684 0.049729 0.177404 238 212 156
0.05684 0.049729 0.182114 229 174 115
0.05684 0.054439 0.177404 246 236 210
0.06155 0.049729 0.177404 242 221 165
0.06155 0.049729 0.182114 238 197 129
0.06155 0.054439 0.177404 239 221 173
0.06155 0.059149 0.167984 238 218 171
0.06155 0.059149 0.172694 240 226 189
0.06626 0.049729 0.167984 240 225 180
0.06626 0.049729 0.172694 242 224 175
0.06626 0.054439 0.167984 240 223 175
0.06626 0.054439 0.172694 243 224 167
0.07097 0.049729 0.167984 242 230 191
0.07097 0.049729 0.172694 208 154 85
0.07097 0.054439 0.167984 243 222 164
0.07097 0.054439 0.172694 241 212 144
0.06626 0.049729 0.177404 226 187 128
0.06626 0.054439 0.177404 242 216 151
0.07097 0.049729 0.177404 196 142 84
0.07097 0.054439 0.177404 240 208 136
0.06626 0.059149 0.167984 236 212 153
0.07097 0.059149 0.167984 240 222 168
0.07097 0.059149 0.172694 245 226 168
0.07097 0.063859 0.167984 238 215 154
0.07568 0.049729 0.167984 239 196 102
0.07568 0.049729 0.172694 223 166 79
0.07568 0.054439 0.167984 222 178 105
0.07568 0.054439 0.172694 236 198 125
0.08039 0.049729 0.167984 233 191 104
0.08039 0.049729 0.172694 239 192 111
0.08039 0.054439 0.167984 151 128 93
0.07568 0.059149 0.167984 241 218 152
0.07568 0.063859 0.167984 252 245 210
0.08039 0.059149 0.167984 200 190 156
0.0851 0.049729 0.167984 214 170 87
0.0851 0.049729 0.172694 222 172 87
0.0851 0.054439 0.167984 164 167 162
0.08981 0.049729 0.167984 227 201 131
0.08981 0.049729 0.172694 228 184 100
0.08981 0.054439 0.167984 159 163 166
0.08981 0.049729 0.177404 234 200 125
0.0851 0.059149 0.167984 161 163 166
0.0851 0.063859 0.167984 243 211 137
0.09452 0.045019 0.172694 243 227 165
0.09923 0.045019 0.172694 246 225 159
0.09452 0.045019 0.177404 236 213 153
0.09452 0.045019 0.182114 219 183 119
0.09923 0.045019 0.177404 243 220 156
0.09923 0.045019 0.182114 162 165 161
0.10394 0.045019 0.177404 193 184 147
0.10394 0.045019 0.182114 132 145 158
0.10865 0.045019 0.182114 127 140 151
0.09452 0.035599 0.200954 138 129 115
0.09923 0.035599 0.200954 165 159 142
0.09452 0.040309 0.186824 126 146 165
0.09452 0.040309 0.191534 156 164 170
0.09452 0.045019 0.186824 131 141 153
0.09452 0.045019 0.191534 147 159 173
0.09923 0.040309 0.191534 147 164 176
0.09923 0.045019 0.186824 131 148 163
0.09923 0.045019 0.191534 132 147 161
0.09452 0.040309 0.196244 128 120 112
0.09452 0.040309 0.200954 111 89 72
0.09452 0.045019 0.196244 128 149 165
0.09923 0.040309 0.196244 148 154 154
0.09923 0.040309 0.200954 142 129 111
0.09923 0.045019 0.196244 124 143 160
0.10394 0.035599 0.200954 207 204 178
0.10394 0.040309 0.191534 133 150 162
0.10394 0.045019 0.186824 138 150 162
0.10394 0.045019 0.191534 145 151 159
0.10865 0.040309 0.191534 160 152 148
0.10865 0.045019 0.186824 159 158 157
0.10865 0.045019 0.191534 208 177 123
0.10394 0.040309 0.196244 131 145 153
0.10394 0.040309 0.200954 158 169 166
0.10394 0.045019 0.196244 114 129 142
0.10394 0.045019 0.200954 119 134 146
0.10865 0.040309 0.196244 184 169 140
0.10865 0.040309 0.200954 159 160 154
0.10865 0.045019 0.196244 177 161 127
0.11336 0.035599 0.196244 216 216 208
0.11336 0.035599 0.200954 208 204 189
0.11807 0.035599 0.196244 203 205 200
0.11807 0.035599 0.200954 246 221 189
0.11336 0.045019 0.186824 234 202 150
0.11336 0.045019 0.191534 243 201 116
0.11807 0.040309 0.191534 247 224 160
0.11807 0.045019 0.186824 243 224 165
0.11807 0.045019 0.191534 243 191 101
0.11336 0.040309 0.196244 224 172 86
0.11336 0.040309 0.200954 219 172 95
